# .PCD v.6 - Point Cloud Data file format
FIELDS x y z range
SIZE 4 4 4 4
TYPE F F F F
COUNT 1 1 1 1
WIDTH 1649
HEIGHT 1
POINTS 1649
DATA ascii
-0.77477 0.20291 1.4597 1.665
-0.77665 0.2051 1.4789 1.683
-0.77472 0.20632 1.4911 1.693
-0.77088 0.20705 1.4998 1.699
-0.76652 0.20766 1.5076 1.704
-0.76613 0.20937 1.5234 1.718
-0.76562 0.21107 1.5391 1.732
-0.75701 0.21056 1.5388 1.7278
-0.78889 0.22141 1.6215 1.8168
-0.8265 0.23408 1.718 1.9208
-0.95751 0.27369 2.0129 2.2458
-0.9854 0.28429 2.0952 2.3328
-0.98664 0.28734 2.1221 2.3578
-0.98518 0.28966 2.1435 2.3768
-0.99586 0.29563 2.1921 2.4258
-0.9919 0.29733 2.2091 2.4398
-1.0031 0.30367 2.2606 2.4918
-1.0027 0.3066 2.2868 2.5158
-1.0128 0.31281 2.3377 2.5668
-1.0158 0.31695 2.3731 2.6008
-1.0115 0.3189 2.3922 2.6168
-1.0014 0.31903 2.3975 2.6178
-0.99084 0.31903 2.4019 2.6178
-0.98439 0.32037 2.4164 2.6288
-0.97295 0.3201 2.4187 2.6266
-0.96347 0.32049 2.4258 2.6298
-0.95636 0.32169 2.4391 2.6396
-0.96031 0.32668 2.4813 2.6806
-0.94975 0.3268 2.4864 2.6816
-0.93916 0.32693 2.4915 2.6826
-0.9365 0.32985 2.5179 2.7066
-0.92884 0.33107 2.5313 2.7166
-0.92446 0.33351 2.554 2.7366
-0.91523 0.33424 2.5637 2.7426
-0.90494 0.3346 2.5705 2.7456
-0.90242 0.33789 2.5998 2.7726
-0.89226 0.33838 2.6075 2.7766
-0.88333 0.33936 2.6189 2.7846
-0.8765 0.34118 2.6369 2.7996
-0.86707 0.34204 2.6473 2.8066
-0.86152 0.34447 2.67 2.8266
-0.85488 0.34655 2.6898 2.8436
-0.85105 0.34984 2.7191 2.8706
-0.84055 0.35045 2.7276 2.8756
-0.83143 0.35166 2.7407 2.8856
-0.81966 0.35179 2.7453 2.8866
-0.81318 0.35422 2.7679 2.9066
-0.80652 0.35666 2.7906 2.9266
-0.79668 0.35776 2.8027 2.9356
-0.79023 0.36044 2.8272 2.9576
-0.78148 0.36214 2.844 2.9716
-0.76897 0.36214 2.8474 2.9716
-0.75644 0.36214 2.8508 2.9716
-0.70931 0.3453 2.7214 2.8334
-0.66855 0.33105 2.6119 2.7164
-0.65174 0.32836 2.5937 2.6944
-0.64033 0.32836 2.5965 2.6944
-0.62867 0.32824 2.5983 2.6934
-0.61724 0.32824 2.6011 2.6934
-0.6058 0.32824 2.6038 2.6934
-0.58905 0.32532 2.5832 2.6694
-0.57358 0.323 2.5673 2.6504
-0.55741 0.3202 2.5475 2.6274
-0.54205 0.31776 2.5306 2.6074
-0.52562 0.31459 2.5077 2.5814
-0.51021 0.31191 2.4885 2.5594
-0.49751 0.31081 2.482 2.5504
-0.48659 0.31081 2.4842 2.5504
-0.47156 0.30813 2.4648 2.5284
-0.46072 0.30813 2.4669 2.5284
-0.44987 0.30813 2.4689 2.5284
-0.43745 0.30704 2.462 2.5194
-0.42409 0.30521 2.4493 2.5044
-0.41298 0.30496 2.4492 2.5024
-0.40221 0.30496 2.4509 2.5024
-0.39143 0.30496 2.4527 2.5024
-0.38187 0.30594 2.4622 2.5104
-0.37858 0.31215 2.5139 2.5614
-0.37154 0.31557 2.5431 2.5894
-0.36564 0.3202 2.582 2.6274
-0.35577 0.32154 2.5944 2.6384
-0.34489 0.32203 2.5999 2.6424
-0.33421 0.32276 2.6073 2.6484
-0.32469 0.32471 2.6245 2.6644
-0.31727 0.32897 2.6604 2.6994
-0.31225 0.33616 2.72 2.7584
-0.36746 0.41136 3.33 3.3754
-0.38699 0.45121 3.6543 3.7024
-0.37393 0.45486 3.6856 3.7324
-0.36108 0.45913 3.7218 3.7674
-0.34746 0.46278 3.753 3.7974
-0.33288 0.46546 3.7763 3.8194
-0.31743 0.46717 3.7915 3.8334
-0.30303 0.47071 3.8216 3.8624
-0.28757 0.4729 3.8407 3.8804
-0.27068 0.4729 3.8419 3.8804
-0.25379 0.4729 3.8431 3.8804
-0.23658 0.47229 3.8392 3.8754
-0.21885 0.47046 3.8253 3.8604
-0.20198 0.47034 3.8253 3.8594
-0.18449 0.46863 3.8123 3.8454
-0.16751 0.46802 3.8081 3.8404
-0.1505 0.46717 3.8018 3.8334
-0.13329 0.46546 3.7886 3.8194
-0.11649 0.46486 3.7842 3.8144
-0.099744 0.46437 3.7807 3.8104
-0.08308 0.46412 3.7791 3.8084
-0.066221 0.46242 3.7655 3.7944
-0.049419 0.4601 3.7469 3.7754
-0.032903 0.45949 3.7421 3.7704
-0.016422 0.45864 3.7353 3.7634
0 0.45864 3.7353 3.7634
0.016368 0.45718 3.7234 3.7514
0.032588 0.45511 3.7064 3.7344
0.048842 0.45474 3.7032 3.7314
0.064964 0.45364 3.6941 3.7224
0.081115 0.45316 3.6898 3.7184
0.097283 0.45291 3.6874 3.7164
0.11282 0.45023 3.6651 3.6944
0.12886 0.44999 3.6626 3.6924
0.14469 0.44913 3.655 3.6854
0.16075 0.44913 3.6544 3.6854
0.17682 0.44913 3.6536 3.6854
0.19293 0.44926 3.6538 3.6864
0.20905 0.44938 3.6539 3.6874
0.22706 0.45328 3.6847 3.7194
0.24443 0.45547 3.7015 3.7374
0.26147 0.45681 3.7112 3.7484
0.6538 1.0752 8.7322 8.8224
0.69218 1.0752 8.7292 8.8224
0.54432 0.80109 6.5016 6.5734
0.56584 0.79122 6.4191 6.4924
0.55278 0.73626 5.9708 6.0414
0.57663 0.73321 5.9436 6.0164
0.60195 0.73224 5.9331 6.0084
0.62531 0.72907 5.9048 5.9824
0.64854 0.72602 5.8773 5.9574
0.67437 0.72602 5.8744 5.9574
0.70313 0.72907 5.896 5.9824
0.73245 0.73248 5.9204 6.0104
0.75847 0.73248 5.9172 6.0104
0.78122 0.72943 5.8892 5.9854
0.80561 0.72809 5.8749 5.9744
0.82948 0.72639 5.8575 5.9604
0.85451 0.72578 5.8489 5.9554
0.88021 0.72578 5.8451 5.9554
0.90559 0.72553 5.8392 5.9534
0.93047 0.72493 5.8303 5.9484
0.95433 0.72358 5.8153 5.9374
0.97823 0.72237 5.8013 5.9274
1.0037 0.72237 5.7969 5.9274
1.0264 0.72042 5.7768 5.9114
1.0506 0.71956 5.7654 5.9044
1.0759 0.71956 5.7608 5.9044
1.0977 0.71725 5.7375 5.8854
1.1212 0.71615 5.7238 5.8764
1.1463 0.71615 5.7188 5.8764
1.1714 0.71615 5.7137 5.8764
1.1963 0.71603 5.7076 5.8754
1.2214 0.71603 5.7022 5.8754
1.2711 0.73017 5.8093 5.9914
1.3427 0.75612 6.01 6.2044
1.4033 0.77501 6.154 6.3594
1.4529 0.7872 6.2445 6.4594
1.5089 0.80244 6.3587 6.5844
1.5789 0.82437 6.5257 6.7644
1.6152 0.82827 6.5495 6.7964
1.6872 0.85009 6.7147 6.9754
1.7569 0.86995 6.8639 7.1384
1.8283 0.89006 7.0146 7.3034
1.8591 0.89006 7.0065 7.3034
1.8899 0.89006 6.9983 7.3034
1.9207 0.89006 6.9899 7.3034
1.9925 0.90883 7.1286 7.4574
2.2255 0.99938 7.8291 8.2004
2.2913 1.0133 7.928 8.3144
2.3427 1.0205 7.9742 8.3736
2.6637 1.1432 8.9215 9.3806
2.7055 1.1443 8.9183 9.3896
2.7484 1.1459 8.9186 9.4026
0.94519 0.38853 3.0199 3.1881
0.95621 0.38762 3.0086 3.1806
0.96499 0.38585 2.9906 3.1661
0.96289 0.37984 2.9399 3.1168
0.96673 0.37631 2.9083 3.0878
0.99171 0.38099 2.9402 3.1262
1.0158 0.38523 2.9684 3.161
1.0271 0.38457 2.9589 3.1556
0.98693 0.36492 2.8034 2.9944
1.0071 0.36778 2.821 3.0178
1.0205 0.36815 2.8194 3.0209
1.0507 0.37449 2.8633 3.0729
1.0667 0.37569 2.8678 3.0827
1.0389 0.36165 2.7561 2.9675
1.0509 0.3616 2.7511 2.9671
1.0625 0.36145 2.7453 2.9659
1.0533 0.3543 2.6864 2.9072
1.0812 0.35965 2.7222 2.9511
3.5392 1.1644 8.7982 9.5546
1.0734 0.34934 2.6349 2.8665
3.5151 1.1318 8.521 9.2868
3.5663 1.1362 8.5384 9.3228
3.6196 1.1412 8.5602 9.3638
3.6619 1.1426 8.5551 9.3758
3.7018 1.1434 8.5444 9.3818
3.7434 1.1446 8.5371 9.3918
3.7809 1.1446 8.5206 9.3918
3.8313 1.1485 8.5329 9.4238
3.8688 1.1485 8.5159 9.4238
3.9062 1.1485 8.4989 9.4238
3.956 1.1521 8.5086 9.4538
3.9934 1.1521 8.4911 9.4538
4.029 1.1516 8.4699 9.4498
4.0662 1.1516 8.4521 9.4498
4.1033 1.1516 8.4342 9.4498
4.1443 1.1527 8.4241 9.4588
4.1746 1.1509 8.3924 9.4438
4.2115 1.1509 8.374 9.4438
4.255 1.1527 8.3687 9.4588
4.1802 1.1228 8.1329 9.213
4.2356 1.128 8.1523 9.256
4.306 1.1372 8.1995 9.331
4.3439 1.1376 8.184 9.335
4.385 1.139 8.1744 9.346
4.4289 1.1411 8.1699 9.363
4.4672 1.1417 8.1547 9.368
4.5083 1.143 8.1446 9.379
4.544 1.143 8.1247 9.379
4.5792 1.1429 8.1037 9.378
4.5208 1.1196 7.9189 9.187
4.6503 1.1429 8.0632 9.378
4.6003 1.1221 7.8961 9.2071
4.7522 1.1504 8.075 9.44
4.7877 1.1504 8.054 9.44
4.8087 1.147 8.0091 9.412
4.8392 1.1459 7.9802 9.403
4.8116 1.1312 7.8566 9.2821
4.7031 1.0978 7.6041 9.0081
4.3879 1.017 7.0252 8.3451
3.9173 0.9016 6.2108 7.3981
3.8464 0.87918 6.0395 7.2141
3.0183 0.68516 4.6935 5.6221
2.9367 0.66213 4.5228 5.4331
2.8635 0.64129 4.3679 5.2621
2.7956 0.62191 4.2237 5.1031
2.9018 0.64129 4.3426 5.2621
3.3932 0.745 5.03 6.1131
3.4159 0.74513 5.0159 6.1142
3.3261 0.72089 4.8382 5.9153
3.2551 0.70102 4.6906 5.7523
3.1828 0.68116 4.5437 5.5893
3.1346 0.66666 4.4332 5.4703
3.0676 0.64838 4.2982 5.3203
2.9855 0.62717 4.1446 5.1463
2.9167 0.60901 4.0118 4.9973
2.868 0.59524 3.9085 4.8843
2.8237 0.58257 3.8129 4.7803
2.7772 0.56959 3.7158 4.6738
2.7263 0.55589 3.6145 4.5614
2.6796 0.54322 3.5203 4.4574
2.6388 0.53188 3.4353 4.3644
2.6022 0.52153 3.357 4.2794
2.5632 0.5108 3.2767 4.1914
2.5123 0.49788 3.1829 4.0854
2.4867 0.49008 3.1221 4.0214
2.4514 0.48046 3.0501 3.9424
2.4138 0.47053 2.9764 3.8609
2.3845 0.46231 2.914 3.7935
2.3511 0.45342 2.8476 3.7205
2.3287 0.44671 2.7953 3.6655
2.3077 0.44037 2.7455 3.6135
2.2678 0.4305 2.674 3.5325
2.2414 0.42331 2.6195 3.4735
2.2134 0.41589 2.5639 3.4126
2.1888 0.40918 2.513 3.3576
2.1651 0.40273 2.4638 3.3046
2.1424 0.39652 2.4164 3.2536
2.1265 0.39164 2.3774 3.2136
2.093 0.3836 2.3194 3.1476
2.0658 0.37677 2.2691 3.0916
2.0466 0.37148 2.2282 3.0482
2.0311 0.36691 2.1919 3.0107
2.0143 0.36216 2.1547 2.9717
1.9945 0.35692 2.1148 2.9287
1.9723 0.35132 2.0729 2.8827
1.9477 0.34534 2.0291 2.8337
1.9421 0.34278 2.0056 2.8127
1.9193 0.33725 1.9647 2.7673
1.9081 0.33377 1.9361 2.7388
1.8831 0.32793 1.894 2.6908
1.8773 0.32549 1.8717 2.6708
1.8509 0.31952 1.8292 2.6218
1.8206 0.31294 1.7835 2.5678
1.7025 0.29138 1.6532 2.3909
1.624 0.27676 1.5631 2.2709
1.605 0.27237 1.5313 2.2349
1.5864 0.2681 1.5004 2.1999
1.5821 0.26628 1.4832 2.1849
1.5705 0.26323 1.4593 2.1599
1.5645 0.26116 1.441 2.143
1.5745 0.26178 1.4375 2.148
1.5786 0.26141 1.4286 2.145
1.5871 0.26178 1.4236 2.148
nan nan nan -inf
nan nan nan -inf
nan nan nan -inf
nan nan nan -inf
nan nan nan -inf
nan nan nan -inf
nan nan nan -inf
nan nan nan -inf
nan nan nan -inf
nan nan nan -inf
nan nan nan -inf
nan nan nan -inf
nan nan nan -inf
nan nan nan -inf
nan nan nan -inf
nan nan nan -inf
-1.4945 0.25734 1.3632 2.0392
-1.4885 0.25734 1.3698 2.0392
-1.4847 0.25772 1.3783 2.0422
-1.4782 0.25765 1.3845 2.0416
-1.4717 0.25758 1.3906 2.0411
-1.4735 0.25897 1.4046 2.0521
-1.468 0.2591 1.4117 2.0531
-1.4625 0.25922 1.4189 2.0541
-1.4598 0.25985 1.4288 2.0591
-1.4541 0.25997 1.4358 2.06
-1.4499 0.26034 1.4443 2.063
-1.4505 0.26161 1.4577 2.073
-1.4441 0.26161 1.464 2.073
-1.4425 0.26249 1.4753 2.08
-1.4332 0.26199 1.4788 2.076
-1.4267 0.26198 1.4851 2.0759
-1.4222 0.26236 1.4935 2.0789
-1.4149 0.26222 1.499 2.0779
-1.4144 0.26336 1.5117 2.0869
-1.4117 0.26412 1.5223 2.0929
-1.4124 0.26551 1.5365 2.1039
-1.4056 0.26551 1.5427 2.1039
-1.3975 0.26525 1.5474 2.1018
-1.3831 0.2638 1.545 2.0903
-1.2929 0.24782 1.4571 1.9638
-1.2347 0.23785 1.404 1.8848
-1.211 0.23445 1.3892 1.8578
-1.1815 0.2299 1.3675 1.8218
-1.1529 0.22549 1.3463 1.7868
-1.1322 0.22259 1.334 1.7638
-1.1106 0.21949 1.3203 1.7392
-1.1004 0.2186 1.3198 1.7322
-1.0828 0.21626 1.3105 1.7136
-1.0708 0.215 1.3075 1.7036
-1.065 0.215 1.3122 1.7036
-1.0592 0.215 1.3169 1.7036
-1.038 0.21184 1.3022 1.6786
-1.0175 0.20882 1.288 1.6547
-1.0002 0.20642 1.2777 1.6357
-0.98659 0.20477 1.2718 1.6226
-0.95737 0.19984 1.2454 1.5835
-0.94768 0.19896 1.2441 1.5765
-0.9422 0.19896 1.2482 1.5765
-0.9367 0.19896 1.2524 1.5765
-0.92705 0.19807 1.2509 1.5695
-0.92154 0.19807 1.255 1.5695
-0.91834 0.19858 1.2622 1.5735
-0.91278 0.19858 1.2663 1.5735
-0.91149 0.19952 1.2763 1.581
-0.91299 0.20109 1.2903 1.5934
-0.90731 0.20109 1.2943 1.5934
-0.90161 0.20109 1.2983 1.5934
-0.88858 0.19944 1.2916 1.5804
-0.88066 0.19894 1.2923 1.5764
-0.87496 0.19894 1.2961 1.5764
-0.87091 0.19932 1.3024 1.5794
-0.86517 0.19932 1.3062 1.5794
-0.85942 0.19932 1.31 1.5794
-0.85875 0.20051 1.3216 1.5888
-0.85745 0.20157 1.3324 1.5973
-0.85904 0.20334 1.3479 1.6113
-0.8547 0.20372 1.3542 1.6143
-0.84873 0.20372 1.3579 1.6143
-0.84275 0.20372 1.3617 1.6143
-0.82898 0.20183 1.3527 1.5993
-0.82302 0.20183 1.3563 1.5993
-0.81705 0.20183 1.3599 1.5993
-0.81765 0.20347 1.3746 1.6123
-0.8116 0.20347 1.3782 1.6123
-0.80553 0.20347 1.3817 1.6123
-0.80313 0.2044 1.3916 1.6197
-0.80311 0.20597 1.4058 1.6321
-0.79692 0.20597 1.4094 1.6321
-0.79071 0.20597 1.4129 1.6321
-0.78449 0.20597 1.4163 1.6321
-0.77873 0.2061 1.4206 1.6331
-0.77531 0.20686 1.4293 1.6391
-0.76902 0.20686 1.4327 1.6391
-0.76271 0.20686 1.436 1.6391
-0.76931 0.21039 1.464 1.6671
-0.77659 0.21418 1.4937 1.6971
-0.77319 0.21506 1.5033 1.7041
-0.76792 0.21544 1.5094 1.7071
-0.76484 0.21645 1.5198 1.7151
-0.76256 0.21771 1.532 1.7251
-0.76013 0.21895 1.5441 1.735
-0.77113 0.22412 1.584 1.776
-0.79126 0.23208 1.6437 1.839
-0.80407 0.23801 1.6893 1.886
-0.79663 0.23801 1.6928 1.886
-0.78917 0.23801 1.6963 1.886
-0.78171 0.23801 1.6997 1.886
-0.77422 0.23801 1.7032 1.886
-0.76672 0.23801 1.7066 1.886
-0.7729 0.2423 1.7407 1.92
-0.79353 0.25126 1.8086 1.991
-0.96943 0.31007 2.2362 2.457
-1.0068 0.32534 2.3508 2.578
-1.0027 0.32736 2.3698 2.594
-0.99225 0.32736 2.3742 2.594
-0.99012 0.33013 2.3987 2.616
-0.98024 0.33036 2.4047 2.6178
-0.9741 0.33187 2.4201 2.6298
-0.97077 0.3344 2.4428 2.6498
-0.96799 0.33718 2.4673 2.6718
-0.95749 0.3373 2.4725 2.6728
-0.94802 0.33781 2.4804 2.6768
-0.94305 0.33995 2.5003 2.6938
-0.9355 0.34121 2.5137 2.7038
-0.9282 0.3426 2.5281 2.7148
-0.9218 0.34437 2.5452 2.7288
-0.91727 0.34689 2.5679 2.7488
-0.91124 0.34891 2.5869 2.7648
-0.90115 0.34942 2.5946 2.7688
-0.89102 0.34992 2.6023 2.7728
-0.88623 0.35257 2.6259 2.7938
-0.87874 0.35421 2.642 2.8068
-0.86927 0.35509 2.6525 2.8138
-0.86095 0.35648 2.6666 2.8248
-0.85462 0.35875 2.6874 2.8428
-0.84694 0.36052 2.7044 2.8568
-0.8365 0.36115 2.7128 2.8618
-0.83119 0.36405 2.7383 2.8848
-0.82453 0.36645 2.76 2.9038
-0.8149 0.36759 2.7722 2.9128
-0.80099 0.36681 2.7699 2.9066
-0.79401 0.36923 2.7917 2.9258
-0.78359 0.37011 2.8018 2.9328
-0.776 0.37238 2.8224 2.9508
-0.76896 0.37501 2.8458 2.9716
-0.75643 0.37501 2.8491 2.9716
-0.71035 0.3581 2.7238 2.8376
-0.6767 0.34699 2.6423 2.7496
-0.65347 0.34094 2.5991 2.7016
-0.64203 0.34094 2.6019 2.7016
-0.63034 0.34081 2.6038 2.7006
-0.61499 0.33866 2.5901 2.6836
-0.60359 0.33866 2.5928 2.6836
-0.59152 0.33829 2.5925 2.6806
-0.57751 0.33677 2.5835 2.6686
-0.53496 0.31822 2.4435 2.5216
-0.51693 0.3138 2.4119 2.4866
-0.50305 0.31178 2.3986 2.4706
-0.48811 0.30901 2.3794 2.4486
-0.47628 0.30812 2.3748 2.4416
-0.46583 0.30812 2.3768 2.4416
-0.45537 0.30812 2.3789 2.4416
-0.4449 0.30812 2.3808 2.4416
-0.43442 0.30812 2.3828 2.4416
-0.42377 0.308 2.3837 2.4406
-0.41311 0.30787 2.3845 2.4396
-0.40278 0.308 2.3873 2.4406
-0.3926 0.30825 2.391 2.4426
-0.38208 0.30825 2.3927 2.4426
-0.37201 0.30863 2.3973 2.4456
-0.36249 0.30951 2.4058 2.4526
-0.35248 0.31002 2.4113 2.4566
-0.34465 0.31254 2.4325 2.4766
-0.33449 0.31305 2.4379 2.4806
-0.32533 0.31456 2.4511 2.4926
-0.31455 0.31456 2.4526 2.4926
-0.30424 0.31506 2.4579 2.4966
-0.29378 0.31544 2.4621 2.4996
-0.28374 0.31633 2.4703 2.5066
-0.27821 0.32251 2.5198 2.5556
-0.3266 0.39432 3.0823 3.1246
-0.37575 0.47332 3.7016 3.7506
-0.3611 0.47546 3.72 3.7676
-0.3472 0.47887 3.7482 3.7946
-0.33254 0.48152 3.7704 3.8156
-0.31852 0.48543 3.8025 3.8466
-0.30493 0.49048 3.8434 3.8866
-0.28623 0.48743 3.8208 3.8624
-0.27068 0.4897 3.8398 3.8804
-0.25379 0.4897 3.841 3.8804
-0.23658 0.48907 3.8371 3.8754
-0.21885 0.48718 3.8233 3.8604
-0.20173 0.48644 3.8184 3.8546
-0.18445 0.48518 3.8094 3.8446
-0.16751 0.48465 3.806 3.8404
-0.1505 0.48377 3.7997 3.8334
-0.13329 0.482 3.7865 3.8194
-0.11649 0.48137 3.7821 3.8144
-0.099618 0.48026 3.7738 3.8056
-0.082909 0.47963 3.7693 3.8006
-0.066155 0.47837 3.7597 3.7906
-0.049419 0.47645 3.7449 3.7754
-0.032903 0.47582 3.7401 3.7704
-0.016422 0.47493 3.7333 3.7634
0 0.47493 3.7333 3.7634
0.016352 0.47294 3.7176 3.7476
0.032588 0.47127 3.7044 3.7344
0.048842 0.4709 3.7012 3.7314
0.064964 0.46976 3.692 3.7224
0.081115 0.46926 3.6878 3.7184
0.097235 0.46877 3.6836 3.7146
0.11282 0.46623 3.6631 3.6944
0.12886 0.46597 3.6606 3.6924
0.14469 0.46509 3.653 3.6854
0.16067 0.46486 3.6506 3.6836
0.17673 0.46486 3.6498 3.6836
0.19278 0.46486 3.649 3.6836
0.20883 0.46486 3.6481 3.6836
0.22487 0.46486 3.6472 3.6836
0.24326 0.46938 3.6816 3.7194
0.26085 0.47193 3.7005 3.7396
0.27883 0.47483 3.7221 3.7626
0.2952 0.47483 3.7208 3.7626
0.54432 0.82955 6.4981 6.5734
0.56516 0.81835 6.4078 6.4846
0.55278 0.76242 5.9675 6.0414
0.57588 0.75827 5.9326 6.0086
0.59997 0.75575 5.9103 5.9886
0.62449 0.75398 5.8938 5.9746
0.65019 0.75373 5.889 5.9726
0.67632 0.75398 5.8881 5.9746
0.70491 0.75689 5.9077 5.9976
0.73162 0.75764 5.9105 6.0036
0.75761 0.75764 5.9072 6.0036
0.78163 0.75575 5.889 5.9886
0.80645 0.75474 5.8777 5.9806
0.83229 0.75474 5.8741 5.9806
0.85812 0.75474 5.8704 5.9806
0.88231 0.75335 5.8557 5.9696
0.90516 0.75096 5.8332 5.9506
0.92893 0.74944 5.8174 5.9386
0.95387 0.74894 5.8093 5.9346
0.97925 0.74881 5.8041 5.9336
1.0046 0.74868 5.7988 5.9326
1.0266 0.74616 5.7748 5.9126
1.0517 0.74591 5.7682 5.9106
1.0737 0.74364 5.746 5.8926
1.0975 0.74263 5.7334 5.8846
1.1227 0.74263 5.7285 5.8846
1.1479 0.74263 5.7236 5.8846
1.1719 0.74187 5.7126 5.8786
1.1945 0.74036 5.6958 5.8666
1.2196 0.74036 5.6904 5.8666
1.2703 0.75563 5.8023 5.9876
1.3447 0.78415 6.0154 6.2136
1.4042 0.80308 6.1545 6.3636
1.4477 0.81229 6.2188 6.4366
1.5055 0.82907 6.3408 6.5696
1.5612 0.84409 6.4488 6.6886
1.6273 0.86416 6.595 6.8476
1.6924 0.88296 6.7312 6.9966
1.766 0.90555 6.8957 7.1756
1.8319 0.92347 7.0241 7.3176
1.905 0.94442 7.1752 7.4836
1.9681 0.95982 7.2836 7.6056
2.0632 0.9901 7.5044 7.8456
2.1935 1.036 7.843 8.2096
2.2602 1.0511 7.9468 8.3286
2.2977 1.0522 7.9454 8.3376
2.3326 1.0522 7.9352 8.3376
2.3777 1.0567 7.9591 8.3736
2.6084 1.1424 8.5932 9.0528
0.91149 0.39353 2.956 3.1183
0.93583 0.39836 2.9882 3.1566
0.94496 0.39668 2.9715 3.1433
0.94723 0.39221 2.9339 3.1079
0.95007 0.3881 2.899 3.0753
0.96176 0.38768 2.8917 3.072
0.97439 0.38764 2.8871 3.0717
0.97564 0.38315 2.8494 3.0361
0.98929 0.38359 2.8484 3.0396
0.98697 0.37791 2.8018 2.9945
0.99465 0.37616 2.7845 2.9807
0.99781 0.37276 2.755 2.9538
1.0484 0.38696 2.8554 3.0663
1.0191 0.37169 2.7383 2.9453
1.0361 0.37349 2.747 2.9595
1.0178 0.36267 2.663 2.8738
1.0359 0.36491 2.6748 2.8915
1.0349 0.36049 2.638 2.8566
1.0374 0.35734 2.6104 2.8316
1.0657 0.36309 2.6477 2.8771
1.0182 0.34316 2.4979 2.7192
1.0679 0.35608 2.5873 2.8216
1.0611 0.35006 2.5389 2.7739
1.0598 0.346 2.5048 2.7417
3.5338 1.1418 8.2507 9.048
3.5744 1.1432 8.2451 9.059
3.621 1.1465 8.2529 9.085
3.6733 1.1516 8.2732 9.125
3.7097 1.1516 8.2569 9.125
3.7488 1.1524 8.2469 9.132
3.7851 1.1524 8.2303 9.132
3.8279 1.1545 8.228 9.148
3.8662 1.1551 8.2155 9.153
3.9147 1.1588 8.2244 9.182
3.9616 1.1619 8.2295 9.207
3.9981 1.162 8.2129 9.208
4.0404 1.1638 8.2077 9.222
4.0702 1.162 8.1774 9.208
4.1084 1.1627 8.1638 9.213
4.1443 1.1627 8.1457 9.213
4.1996 1.1681 8.1653 9.256
4.2533 1.173 8.1811 9.295
4.1841 1.1443 7.9622 9.0671
4.2316 1.1477 7.9674 9.0941
4.2662 1.1475 7.9478 9.0931
4.3053 1.1487 7.9368 9.1021
4.3483 1.1508 7.9326 9.1191
4.3942 1.1537 7.9334 9.1421
4.4431 1.1574 7.9391 9.1711
4.4648 1.154 7.8961 9.1441
4.3785 1.123 7.6646 8.8983
4.5549 1.1593 7.8926 9.1861
4.6001 1.1619 7.8905 9.2071
4.6494 1.1656 7.895 9.2361
4.6927 1.1677 7.889 9.2531
4.7585 1.1754 7.9201 9.3141
4.6328 1.1361 7.6346 9.0023
4.6663 1.1361 7.6142 9.0023
4.4899 1.0853 7.2545 8.6003
4.3624 1.0471 6.9798 8.2973
3.8816 0.9252 6.1501 7.3313
3.0679 0.72618 4.8138 5.7543
3.0047 0.70637 4.6693 5.5973
2.922 0.68226 4.4971 5.4063
2.8509 0.66119 4.3457 5.2393
2.87 0.66119 4.3331 5.2393
3.4404 0.78739 5.1451 6.2393
3.4631 0.7874 5.13 6.2393
3.3929 0.76646 4.9787 6.0734
3.3271 0.74677 4.8362 5.9174
3.2696 0.72923 4.7082 5.7784
3.1844 0.70575 4.5427 5.5924
3.1224 0.68771 4.4129 5.4494
3.0496 0.66752 4.2699 5.2894
2.9807 0.64846 4.135 5.1384
2.9288 0.63332 4.0256 5.0184
2.869 0.61667 3.9071 4.8865
2.8165 0.60177 3.8004 4.7685
2.7703 0.58841 3.7039 4.6625
2.707 0.57162 3.5863 4.5295
2.6813 0.56291 3.5199 4.4605
2.6333 0.54966 3.4255 4.3555
2.5893 0.53742 3.3379 4.2585
2.5594 0.52821 3.2694 4.1855
2.5257 0.51836 3.1974 4.1075
2.4829 0.50676 3.115 4.0156
2.4525 0.49781 3.0492 3.9446
2.4184 0.48822 2.9798 3.8686
2.3799 0.47787 2.9062 3.7866
2.3485 0.46904 2.8422 3.7166
2.3228 0.46146 2.7861 3.6566
2.3006 0.45465 2.7349 3.6026
2.2593 0.44418 2.662 3.5197
2.2388 0.43787 2.6144 3.4697
2.2049 0.42905 2.552 3.3998
2.1868 0.42337 2.5086 3.3548
2.1696 0.41794 2.467 3.3118
2.1357 0.40936 2.4069 3.2438
2.1164 0.40368 2.3643 3.1987
2.0873 0.39618 2.3112 3.1393
2.0704 0.39107 2.2723 3.0988
2.0408 0.38363 2.2201 3.0399
2.0269 0.37921 2.1856 3.0049
2.0101 0.37429 2.1484 2.9659
1.9882 0.36848 2.1064 2.9199
1.9735 0.36407 2.0725 2.8849
1.9565 0.35928 2.0366 2.8469
1.9351 0.35372 1.9967 2.8029
1.9196 0.34932 1.9634 2.768
1.9018 0.34452 1.928 2.73
1.8885 0.34061 1.8979 2.699
1.8786 0.33732 1.8713 2.673
1.8526 0.33121 1.8293 2.6245
1.8156 0.3232 1.7771 2.561
1.6932 0.30011 1.6427 2.3781
1.6281 0.28736 1.5658 2.2771
1.6013 0.28143 1.5264 2.2301
1.5878 0.2779 1.5003 2.2021
1.5701 0.27368 1.4706 2.1686
1.5682 0.27223 1.4559 2.1571
1.571 0.2716 1.4457 2.1522
1.5774 0.2716 1.4388 2.1522
1.5837 0.2716 1.4318 2.1522
1.5914 0.27185 1.4262 2.1542
nan nan nan -inf
nan nan nan -inf
nan nan nan -inf
nan nan nan -inf
nan nan nan -inf
nan nan nan -inf
nan nan nan -inf
nan nan nan -inf
nan nan nan -inf
nan nan nan -inf
nan nan nan -inf
nan nan nan -inf
nan nan nan -inf
nan nan nan -inf
nan nan nan -inf
nan nan nan -inf
-1.49 0.2654 1.3578 2.0333
-1.4884 0.26618 1.3684 2.0393
-1.4853 0.26671 1.3776 2.0433
-1.4828 0.26736 1.3876 2.0483
-1.4756 0.26716 1.393 2.0468
-1.477 0.26853 1.4067 2.0573
-1.4729 0.26891 1.4152 2.0602
-1.4667 0.26891 1.4216 2.0602
-1.4604 0.26891 1.4281 2.0602
-1.4541 0.26891 1.4345 2.0602
-1.4512 0.26956 1.4443 2.0652
-1.4504 0.27059 1.4563 2.0731
-1.4447 0.27072 1.4634 2.0741
-1.4389 0.27086 1.4704 2.0751
-1.4325 0.27086 1.4768 2.0751
-1.4266 0.27099 1.4838 2.0761
-1.4228 0.27151 1.4929 2.0801
-1.4264 0.27346 1.5099 2.0951
-1.4197 0.27345 1.5161 2.095
-1.413 0.27345 1.5224 2.095
-1.4077 0.27371 1.53 2.097
-1.4009 0.27371 1.5362 2.097
-1.3888 0.27267 1.5365 2.089
-1.382 0.27267 1.5426 2.089
-1.2788 0.25354 1.44 1.9424
-1.2295 0.24498 1.3968 1.8769
-1.2031 0.24094 1.3791 1.8459
-1.1782 0.23715 1.3626 1.8169
-1.1522 0.23311 1.3444 1.7859
-1.1264 0.22906 1.3261 1.7549
-1.1046 0.2258 1.3121 1.7299
-1.0988 0.2258 1.3169 1.7299
-1.0907 0.22533 1.319 1.7263
-1.0764 0.22356 1.3134 1.7128
-1.0706 0.22356 1.3181 1.7128
-1.0636 0.2233 1.3213 1.7108
-1.0441 0.22043 1.3089 1.6888
-1.0304 0.21873 1.3034 1.6758
-1.0099 0.2156 1.2892 1.6518
-0.99819 0.2143 1.2858 1.6418
-0.96437 0.20822 1.2536 1.5952
-0.95073 0.20646 1.2471 1.5817
-0.94459 0.20632 1.2505 1.5807
-0.93017 0.20436 1.2427 1.5657
-0.92469 0.20436 1.2468 1.5657
-0.9192 0.20436 1.2509 1.5657
-0.92244 0.20632 1.2669 1.5807
-0.91686 0.20632 1.271 1.5807
-0.91126 0.20632 1.275 1.5807
-0.89958 0.20494 1.2704 1.5701
-0.89341 0.20481 1.2736 1.5691
-0.88917 0.20513 1.2795 1.5715
-0.88354 0.20513 1.2834 1.5715
-0.87956 0.20552 1.2897 1.5745
-0.87387 0.20552 1.2936 1.5745
-0.87313 0.20669 1.3048 1.5835
-0.86738 0.20669 1.3086 1.5835
-0.86271 0.20696 1.3141 1.5855
-0.85854 0.20735 1.3204 1.5885
-0.85563 0.20806 1.3287 1.594
-0.84978 0.20806 1.3324 1.594
-0.84201 0.20759 1.3332 1.5904
-0.83561 0.20746 1.336 1.5894
-0.82712 0.20681 1.3355 1.5844
-0.82123 0.20681 1.3391 1.5844
-0.81533 0.20681 1.3427 1.5844
-0.81554 0.20837 1.3565 1.5964
-0.81109 0.20877 1.3626 1.5994
-0.80609 0.20903 1.3679 1.6014
-0.80006 0.20903 1.3714 1.6014
-0.79402 0.20903 1.3749 1.6014
-0.79039 0.20967 1.3826 1.6063
-0.78572 0.21005 1.3886 1.6093
-0.78445 0.21136 1.4007 1.6193
-0.77972 0.21175 1.4068 1.6223
-0.77638 0.21253 1.4154 1.6283
-0.77062 0.21266 1.4197 1.6293
-0.76812 0.21371 1.43 1.6373
-0.76228 0.21384 1.4343 1.6383
-0.77027 0.21788 1.4648 1.6693
-0.78074 0.22271 1.5007 1.7063
-0.77458 0.22284 1.505 1.7073
-0.7729 0.22428 1.5182 1.7183
-0.7671 0.22454 1.5233 1.7203
-0.76393 0.22559 1.5338 1.7283
-0.76718 0.22857 1.5574 1.7511
-0.76726 0.23066 1.5751 1.7671
-0.79044 0.23979 1.641 1.8371
-0.78321 0.23979 1.6444 1.8371
-0.77681 0.24005 1.6496 1.8391
-0.76997 0.24018 1.6539 1.8401
-0.76268 0.24018 1.6573 1.8401
-0.75661 0.24058 1.6634 1.8431
-0.75091 0.2411 1.6703 1.8471
-0.75563 0.24501 1.7008 1.8771
-0.77842 0.25493 1.7731 1.9531
-0.95921 0.31733 2.2112 2.4311
-1.0084 0.33704 2.353 2.5821
-1.0008 0.33795 2.3639 2.5891
-1.0006 0.34145 2.3928 2.616
-0.99237 0.34223 2.4027 2.622
-0.9859 0.34367 2.4171 2.633
-0.9797 0.34524 2.4325 2.645
-0.97118 0.34602 2.4423 2.651
-0.96296 0.34693 2.453 2.658
-0.95681 0.34863 2.4692 2.671
-0.94806 0.34941 2.479 2.677
-0.94449 0.35215 2.5026 2.698
-0.94177 0.35529 2.529 2.722
-0.93063 0.35529 2.5331 2.722
-0.92015 0.35555 2.5391 2.724
-0.91398 0.35751 2.5571 2.739
-0.90535 0.35855 2.5686 2.747
-0.9025 0.36194 2.5969 2.773
-0.89395 0.36312 2.6093 2.782
-0.88532 0.36429 2.6216 2.791
-0.8794 0.36664 2.6424 2.809
-0.86808 0.36677 2.6472 2.81
-0.85916 0.36795 2.6595 2.819
-0.85466 0.37108 2.6859 2.843
-0.84278 0.37106 2.6895 2.8428
-0.83274 0.37186 2.699 2.849
-0.82455 0.37354 2.7148 2.8618
-0.81832 0.37617 2.7376 2.882
-0.8113 0.37852 2.7583 2.9
-0.80627 0.38189 2.7864 2.9258
-0.7959 0.3828 2.7966 2.9328
-0.78839 0.38515 2.8173 2.9508
-0.78177 0.38802 2.8418 2.9728
-0.76926 0.38802 2.8452 2.9728
-0.75673 0.38802 2.8485 2.9728
-0.70763 0.36897 2.7118 2.8268
-0.66862 0.35461 2.6092 2.7168
-0.6552 0.35356 2.6044 2.7088
-0.64135 0.35226 2.5977 2.6988
-0.62805 0.35122 2.5928 2.6908
-0.61525 0.35043 2.5897 2.6848
-0.60385 0.35043 2.5924 2.6848
-0.58957 0.34874 2.5825 2.6718
-0.57495 0.34678 2.5705 2.6568
-0.53711 0.33046 2.452 2.5318
-0.51197 0.32146 2.3874 2.4628
-0.50065 0.32093 2.3858 2.4588
-0.48795 0.3195 2.3773 2.4478
-0.47748 0.3195 2.3794 2.4478
-0.46662 0.31924 2.3795 2.4458
-0.45615 0.31924 2.3815 2.4458
-0.44566 0.31924 2.3835 2.4458
-0.43428 0.31858 2.3806 2.4408
-0.42258 0.31767 2.3756 2.4338
-0.41212 0.31767 2.3775 2.4338
-0.40116 0.31728 2.3763 2.4308
-0.39118 0.31767 2.381 2.4338
-0.3807 0.31767 2.3827 2.4338
-0.37021 0.31767 2.3844 2.4338
-0.35956 0.31754 2.385 2.4328
-0.34921 0.31767 2.3875 2.4338
-0.3387 0.31767 2.3891 2.4338
-0.3298 0.31924 2.4023 2.4458
-0.31922 0.31924 2.4037 2.4458
-0.30876 0.31937 2.4061 2.4468
-0.29842 0.31963 2.4094 2.4488
-0.28781 0.31963 2.4107 2.4488
-0.27799 0.32054 2.4188 2.4558
-0.26734 0.32054 2.42 2.4558
-0.25763 0.32172 2.4301 2.4648
-0.24763 0.32263 2.4381 2.4718
-0.24409 0.33242 2.5131 2.5468
-0.28921 0.41256 3.1203 3.1608
-0.33071 0.49529 3.7475 3.7946
-0.31589 0.49793 3.7689 3.8148
-0.30118 0.50106 3.794 3.8388
-0.28817 0.50756 3.8445 3.8886
-0.27125 0.50756 3.8457 3.8886
-0.25432 0.50756 3.8469 3.8886
-0.23672 0.50612 3.8371 3.8776
-0.21977 0.50599 3.8371 3.8766
-0.20173 0.50312 3.8163 3.8546
-0.18445 0.50182 3.8072 3.8446
-0.16752 0.50129 3.804 3.8406
-0.1505 0.50038 3.7978 3.8336
-0.13351 0.49934 3.7905 3.8256
-0.11649 0.4979 3.7801 3.8146
-0.099618 0.49673 3.7717 3.8056
-0.082909 0.49607 3.7671 3.8006
-0.066155 0.49477 3.7576 3.7906
-0.049578 0.49438 3.7548 3.7876
-0.032974 0.4932 3.7461 3.7786
-0.016457 0.49229 3.7393 3.7716
0 0.49177 3.7353 3.7676
0.016352 0.48916 3.7155 3.7476
0.032616 0.48785 3.7054 3.7376
0.048857 0.4872 3.7003 3.7326
0.065072 0.48668 3.6961 3.7286
0.081207 0.48589 3.6898 3.7226
0.097235 0.48485 3.6815 3.7146
0.11344 0.48485 3.681 3.7146
0.12922 0.48328 3.6686 3.7026
0.14505 0.48224 3.6601 3.6946
0.16067 0.4808 3.6485 3.6836
0.17673 0.4808 3.6478 3.6836
0.19278 0.4808 3.647 3.6836
0.20883 0.4808 3.6461 3.6836
0.22713 0.48563 3.6817 3.7206
0.24333 0.48563 3.6807 3.7206
0.25953 0.48563 3.6796 3.7206
0.27713 0.48811 3.6972 3.7396
0.69204 1.1513 8.7177 8.8206
0.7304 1.1513 8.7146 8.8206
0.56515 0.84641 6.4042 6.4846
0.55774 0.79563 6.0176 6.0956
0.57588 0.78428 5.9293 6.0086
0.59996 0.78166 5.9069 5.9886
0.62441 0.77973 5.8896 5.9738
0.65019 0.77958 5.8857 5.9726
0.67609 0.77958 5.8827 5.9726
0.70221 0.77984 5.8817 5.9746
0.73089 0.78284 5.9012 5.9976
0.75761 0.78362 5.9038 6.0036
0.78163 0.78166 5.8857 5.9886
0.80644 0.78062 5.8743 5.9806
0.83204 0.78038 5.8689 5.9788
0.85757 0.78012 5.8632 5.9768
0.8823 0.77918 5.8524 5.9696
0.90823 0.77934 5.8496 5.9708
0.93209 0.77777 5.8338 5.9588
0.9539 0.77464 5.8062 5.9348
0.97746 0.77308 5.7902 5.9228
1.0026 0.77281 5.7839 5.9208
1.028 0.77281 5.7794 5.9208
1.0526 0.77216 5.7699 5.9158
1.0747 0.76981 5.7477 5.8978
1.099 0.76916 5.738 5.8928
1.1222 0.76772 5.7225 5.8818
1.1468 0.76733 5.7145 5.8788
1.1719 0.76733 5.7094 5.8788
1.197 0.76733 5.7042 5.8788
1.2231 0.76798 5.7038 5.8838
1.2758 0.78495 5.8242 6.0138
1.3432 0.81014 6.0053 6.2068
1.4076 0.8326 6.1656 6.3788
1.4545 0.84408 6.2443 6.4668
1.5108 0.86053 6.3594 6.5928
1.5696 0.87776 6.4798 6.7248
1.6266 0.89342 6.5884 6.8448
1.6885 0.91117 6.7119 6.9808
1.7653 0.93623 6.8888 7.1728
1.8244 0.95124 6.9913 7.2878
1.9004 0.97448 7.1538 7.4658
1.9319 0.97448 7.1453 7.4658
2.0038 0.99458 7.284 7.6198
2.1849 1.0674 7.8078 8.1778
2.2505 1.0824 7.9078 8.2928
2.3073 1.0929 7.974 8.3728
2.3432 1.0933 7.9667 8.3758
2.5705 1.1816 8.5994 9.0528
2.6147 1.1845 8.6088 9.0748
0.92599 0.4135 3.0013 3.168
0.93768 0.41284 2.9923 3.1629
0.93231 0.40479 2.93 3.1012
0.94198 0.40342 2.9159 3.0907
0.94748 0.40032 2.8894 3.067
0.95333 0.39746 2.8646 3.0451
0.96413 0.39672 2.855 3.0394
0.97134 0.39455 2.8351 3.0228
0.97419 0.3907 2.8032 2.9932
0.9877 0.39116 2.8022 2.9968
0.98982 0.38717 2.7693 2.9662
0.99157 0.38314 2.7361 2.9354
0.99793 0.38098 2.7163 2.9188
1.012 0.38177 2.7175 2.9249
0.9979 0.37207 2.6441 2.8505
1.0192 0.37563 2.665 2.8778
1.0297 0.3752 2.6574 2.8745
1.0151 0.3657 2.5857 2.8018
1.0122 0.36064 2.5455 2.763
0.99592 0.35095 2.4727 2.6888
1.0011 0.34898 2.4544 2.6736
1.0301 0.35526 2.4941 2.7218
1.0202 0.34813 2.4396 2.6671
1.0562 0.35667 2.4948 2.7325
1.078 0.36029 2.5154 2.7603
3.4694 1.1477 7.9978 8.7931
3.5181 1.1522 8.0133 8.8271
3.5541 1.1524 7.9996 8.8291
3.6064 1.1579 8.0219 8.8711
3.6441 1.1587 8.0113 8.8771
3.6793 1.1587 7.9952 8.8771
3.7145 1.1587 7.9789 8.8771
3.7626 1.1627 7.9903 8.9081
3.805 1.165 7.9889 8.9251
3.8474 1.1672 7.9873 8.9421
3.8934 1.1704 7.9925 8.9671
3.9286 1.1704 7.9753 8.9671
3.9747 1.1737 7.9801 8.9921
4.0133 1.1748 7.9697 9.0001
4.0546 1.1766 7.9643 9.0141
4.1028 1.1804 7.9719 9.0431
4.0222 1.1474 7.7314 8.7903
4.0691 1.151 7.7382 8.8183
4.1124 1.1536 7.7377 8.8383
4.1464 1.1536 7.7196 8.8383
4.1855 1.1551 7.7108 8.8493
4.228 1.1574 7.708 8.8673
4.2633 1.1578 7.6919 8.8703
4.1834 1.1271 7.4699 8.6354
4.3421 1.1608 7.6739 8.8933
4.3783 1.1615 7.659 8.8983
4.4219 1.1641 7.6569 8.9183
4.468 1.1673 7.6587 8.9433
4.5102 1.1695 7.6535 8.9603
4.5469 1.1703 7.6387 8.9663
4.4845 1.1458 7.459 8.7784
4.5194 1.1463 7.4426 8.7824
4.5521 1.1463 7.4226 8.7824
4.462 1.1157 7.2044 8.5474
4.3665 1.0841 6.9813 8.3054
3.8645 0.95276 6.1187 7.2994
3.0555 0.7481 4.791 5.7314
2.9858 0.72604 4.6366 5.5624
2.9176 0.70463 4.4871 5.3984
2.847 0.68297 4.3366 5.2324
2.8603 0.6816 4.3154 5.222
3.4417 0.81474 5.1433 6.242
3.4657 0.81508 5.1302 6.2445
3.3939 0.79302 4.9764 6.0755
3.3252 0.772 4.83 5.9145
3.2525 0.75033 4.6802 5.7485
3.1882 0.73089 4.5449 5.5995
3.1137 0.70935 4.3973 5.4345
3.0523 0.69108 4.2706 5.2945
2.9765 0.6698 4.1261 5.1315
2.9103 0.65095 3.9972 4.9871
2.8549 0.63471 3.8849 4.8627
2.8064 0.62022 3.7839 4.7517
2.7642 0.60729 3.6929 4.6527
2.7117 0.59228 3.5898 4.5377
2.6709 0.58001 3.5037 4.4437
2.6392 0.56983 3.4306 4.3657
2.5886 0.55574 3.3344 4.2577
2.5467 0.54367 3.2508 4.1652
2.514 0.53368 3.1801 4.0887
2.4785 0.52325 3.107 4.0088
2.4449 0.51333 3.0374 3.9328
2.4151 0.50432 2.9735 3.8638
2.3924 0.49688 2.9191 3.8068
2.3433 0.48409 2.8337 3.7088
2.3202 0.47678 2.7807 3.6528
2.2912 0.46837 2.7216 3.5883
2.2612 0.45983 2.662 3.5229
2.2393 0.45304 2.6129 3.4709
2.2086 0.44456 2.5543 3.4059
2.1866 0.4379 2.5064 3.3549
2.1524 0.42889 2.4454 3.2859
2.1342 0.42315 2.4033 3.2419
2.1081 0.41591 2.353 3.1864
2.0802 0.40842 2.3014 3.129
2.0589 0.40228 2.2578 3.082
2.0407 0.3968 2.2181 3.04
2.0234 0.39158 2.18 3
2.0066 0.38649 2.1428 2.961
2.0003 0.38348 2.1174 2.938
1.9703 0.37599 2.0674 2.8806
1.9516 0.37071 2.0298 2.8401
1.9308 0.3651 1.9906 2.7971
1.916 0.36066 1.958 2.7631
1.8988 0.35583 1.9234 2.7261
1.8968 0.35387 1.9045 2.7111
1.8651 0.34644 1.8563 2.6542
1.8514 0.3424 1.8265 2.6232
1.8113 0.33352 1.7712 2.5552
1.6788 0.30781 1.6273 2.3582
1.6237 0.29645 1.5601 2.2712
1.6062 0.29201 1.5297 2.2372
1.5873 0.28739 1.4985 2.2018
1.5777 0.28446 1.4763 2.1793
1.5609 0.28028 1.4478 2.1473
1.5672 0.28028 1.4409 2.1473
1.5736 0.28028 1.434 2.1473
1.5817 0.28061 1.4287 2.1499
1.5891 0.28081 1.4227 2.1513
nan nan nan -inf
nan nan nan -inf
nan nan nan -inf
nan nan nan -inf
nan nan nan -inf
nan nan nan -inf
nan nan nan -inf
nan nan nan -inf
nan nan nan -inf
nan nan nan -inf
nan nan nan -inf
nan nan nan -inf
nan nan nan -inf
nan nan nan -inf
nan nan nan -inf
nan nan nan -inf
-1.4951 0.27516 1.3611 2.0405
-1.4902 0.27536 1.3687 2.042
-1.4837 0.27529 1.3749 2.0414
-1.4777 0.27529 1.3814 2.0414
-1.4795 0.27677 1.3954 2.0524
-1.4762 0.27731 1.4046 2.0565
-1.4693 0.27717 1.4104 2.0554
-1.4644 0.27743 1.4182 2.0573
-1.4596 0.2777 1.426 2.0593
-1.4568 0.27838 1.4359 2.0643
-1.4505 0.27838 1.4423 2.0644
-1.4455 0.27864 1.45 2.0663
-1.4436 0.27952 1.4609 2.0728
-1.4444 0.28093 1.4747 2.0832
-1.4379 0.28093 1.481 2.0832
-1.4314 0.28093 1.4874 2.0833
-1.4262 0.2812 1.4951 2.0853
-1.4216 0.2816 1.5035 2.0883
-1.4207 0.28274 1.5159 2.0967
-1.4163 0.2832 1.5246 2.1001
-1.4069 0.28267 1.5279 2.0961
-1.4002 0.28267 1.5341 2.0961
-1.3908 0.28213 1.5373 2.0921
-1.3813 0.28159 1.5405 2.0882
-1.283 0.26285 1.4436 1.9492
-1.2282 0.25286 1.3942 1.8751
-1.1966 0.2476 1.3704 1.8361
-1.1717 0.24368 1.3539 1.807
-1.1586 0.2422 1.3508 1.796
-1.1463 0.24085 1.3483 1.786
-1.1071 0.23384 1.314 1.734
-1.1013 0.23384 1.3188 1.734
-1.0949 0.2337 1.3229 1.733
-1.0802 0.23181 1.3169 1.719
-1.0743 0.2318 1.3216 1.7189
-1.0598 0.22991 1.3156 1.7049
-1.0497 0.22897 1.3148 1.6979
-1.0224 0.22425 1.2922 1.6629
-1.0154 0.22398 1.2951 1.6609
-1.0049 0.2229 1.2933 1.6529
-0.95806 0.21373 1.2444 1.5849
-0.95198 0.2136 1.2478 1.5839
-0.93837 0.21177 1.2412 1.5704
-0.93255 0.21169 1.2449 1.5698
-0.92706 0.21169 1.249 1.5698
-0.92156 0.21169 1.2531 1.5698
-0.91603 0.21169 1.2571 1.5698
-0.91049 0.21169 1.2612 1.5698
-0.90493 0.21169 1.2652 1.5698
-0.89648 0.21102 1.2651 1.5648
-0.89091 0.21102 1.269 1.5648
-0.88725 0.21148 1.2757 1.5683
-0.89142 0.21383 1.2938 1.5857
-0.88572 0.21383 1.2978 1.5857
-0.87999 0.21383 1.3016 1.5857
-0.87205 0.21329 1.3022 1.5817
-0.86302 0.21248 1.3011 1.5757
-0.85729 0.21248 1.3049 1.5757
-0.85477 0.21329 1.3136 1.5817
-0.85864 0.21572 1.3324 1.5997
-0.8533 0.21586 1.337 1.6007
-0.84419 0.21504 1.3356 1.5946
-0.83459 0.21408 1.3334 1.5876
-0.82871 0.21408 1.3371 1.5876
-0.82281 0.21408 1.3407 1.5876
-0.81896 0.21462 1.3477 1.5916
-0.81557 0.2153 1.3555 1.5966
-0.81213 0.21597 1.3634 1.6016
-0.80612 0.21597 1.3669 1.6016
-0.80009 0.21597 1.3705 1.6016
-0.79405 0.21597 1.374 1.6016
-0.79193 0.21705 1.3844 1.6096
-0.78799 0.21765 1.3916 1.614
-0.77867 0.21676 1.3894 1.6074
-0.77879 0.21852 1.4041 1.6204
-0.77451 0.21906 1.411 1.6244
-0.77633 0.22135 1.4292 1.6414
-0.77472 0.2227 1.4413 1.6514
-0.77116 0.22351 1.45 1.6574
-0.76707 0.22418 1.4577 1.6624
-0.77529 0.2285 1.4892 1.6944
-0.77144 0.2293 1.4979 1.7004
-0.76979 0.23079 1.511 1.7114
-0.77249 0.23362 1.533 1.7324
-0.77369 0.23605 1.5523 1.7504
-0.76546 0.23562 1.5529 1.7473
-0.77381 0.24034 1.5874 1.7823
-0.78704 0.24668 1.6328 1.8293
-0.78368 0.24789 1.6443 1.8383
-0.77643 0.24789 1.6477 1.8383
-0.76917 0.24789 1.6511 1.8383
-0.76189 0.24789 1.6545 1.8383
-0.7546 0.24789 1.6578 1.8383
-0.75664 0.251 1.6819 1.8613
-0.76211 0.25531 1.7142 1.8933
-0.78006 0.26394 1.7756 1.9573
-0.8756 0.29927 2.0172 2.2193
-1.0089 0.34836 2.3525 2.5833
-1.007 0.35133 2.377 2.6053
-0.99722 0.35157 2.3831 2.6071
-0.99391 0.35414 2.4048 2.6261
-0.98444 0.35454 2.4119 2.6291
-0.97899 0.35643 2.4291 2.6431
-0.97085 0.35737 2.4399 2.6501
-0.96372 0.35872 2.4533 2.6601
-0.95398 0.35913 2.4603 2.6631
-0.94703 0.36061 2.4747 2.6741
-0.94033 0.36223 2.49 2.6861
-0.93697 0.36519 2.5145 2.7081
-0.93033 0.36695 2.5307 2.7211
-0.92492 0.36924 2.5506 2.7381
-0.91401 0.36937 2.5556 2.7391
-0.90341 0.36964 2.5614 2.7411
-0.89635 0.3714 2.5776 2.7541
-0.89335 0.3749 2.6059 2.7801
-0.88535 0.37639 2.6201 2.7911
-0.87537 0.37706 2.6287 2.7961
-0.86842 0.37908 2.6466 2.8111
-0.8564 0.37893 2.6493 2.81
-0.84743 0.38014 2.6616 2.819
-0.8446 0.38418 2.6936 2.849
-0.84033 0.38769 2.7219 2.875
-0.83035 0.38863 2.7322 2.882
-0.82342 0.39106 2.753 2.9
-0.81325 0.39201 2.7632 2.907
-0.80466 0.39376 2.7791 2.92
-0.79784 0.39646 2.8017 2.94
-0.78843 0.39794 2.8157 2.951
-0.77734 0.39861 2.8239 2.956
-0.7649 0.39861 2.8273 2.956
-0.75244 0.39861 2.8307 2.956
-0.71618 0.3858 2.7429 2.861
-0.67654 0.3707 2.6385 2.749
-0.65064 0.36274 2.5848 2.69
-0.63925 0.36274 2.5876 2.69
-0.62785 0.36274 2.5904 2.69
-0.61552 0.3622 2.5893 2.686
-0.60411 0.3622 2.592 2.686
-0.59269 0.3622 2.5946 2.686
-0.57672 0.35937 2.5769 2.665
-0.53439 0.33968 2.4381 2.519
-0.51326 0.33294 2.392 2.469
-0.50088 0.33173 2.3855 2.46
-0.49038 0.33173 2.3877 2.46
-0.4781 0.33051 2.381 2.451
-0.46685 0.32997 2.3792 2.447
-0.45487 0.3289 2.3735 2.439
-0.44442 0.3289 2.3755 2.439
-0.43289 0.32809 2.3715 2.433
-0.42244 0.32809 2.3734 2.433
-0.41181 0.32795 2.3743 2.432
-0.39937 0.32633 2.3644 2.42
-0.38896 0.32633 2.3661 2.42
-0.37854 0.32633 2.3678 2.42
-0.36811 0.32633 2.3694 2.42
-0.35915 0.32768 2.3808 2.43
-0.34906 0.32806 2.3851 2.4328
-0.33869 0.32819 2.3876 2.4338
-0.32818 0.32819 2.3891 2.4338
-0.3182 0.32876 2.3946 2.438
-0.30765 0.32876 2.396 2.438
-0.29734 0.32903 2.3993 2.44
-0.28654 0.32876 2.3986 2.438
-0.27597 0.32876 2.3999 2.438
-0.26832 0.33237 2.4275 2.4648
-0.25836 0.33332 2.4355 2.4718
-0.25515 0.34343 2.5106 2.5468
-0.30294 0.42623 3.1172 3.1608
-0.34722 0.51173 3.744 3.7948
-0.33247 0.51442 3.7653 3.8148
-0.31787 0.51766 3.7904 3.8388
-0.30471 0.52373 3.8362 3.8838
-0.28878 0.52548 3.8504 3.8968
-0.27182 0.52548 3.8516 3.8968
-0.25486 0.52548 3.8527 3.8968
-0.23746 0.52454 3.8469 3.8898
-0.21978 0.52278 3.8351 3.8768
-0.2019 0.52022 3.8172 3.8578
-0.18437 0.5182 3.8032 3.8428
-0.16744 0.51766 3.8 3.8388
-0.15047 0.51685 3.7948 3.8328
-0.13348 0.51577 3.7875 3.8248
-0.11677 0.51564 3.787 3.8238
-0.09944 0.51227 3.7627 3.7988
-0.08287 0.51227 3.7631 3.7988
-0.066228 0.51173 3.7595 3.7948
-0.049502 0.50997 3.7469 3.7818
-0.032967 0.50943 3.7431 3.7778
-0.01648 0.5093 3.7422 3.7768
0 0.50593 3.7175 3.7518
0.016361 0.50566 3.7155 3.7498
0.032696 0.50525 3.7124 3.7468
0.048978 0.50458 3.7073 3.7418
0.065198 0.50377 3.7011 3.7358
0.081495 0.50377 3.7007 3.7358
0.097476 0.50215 3.6885 3.7238
0.11329 0.50026 3.6741 3.7098
0.12905 0.49865 3.6617 3.6978
0.14494 0.49784 3.6552 3.6918
0.16103 0.49784 3.6545 3.6918
0.17698 0.49743 3.6508 3.6888
0.19305 0.49743 3.65 3.6888
0.20935 0.49797 3.653 3.6928
0.22727 0.50202 3.6817 3.7228
0.24478 0.50471 3.7005 3.7428
0.26157 0.50566 3.7063 3.7498
0.65287 1.188 8.7048 8.8098
0.69119 1.188 8.7019 8.8098
0.72826 1.186 8.6839 8.7948
0.56953 0.88122 6.45 6.5348
0.55995 0.82525 6.038 6.1198
0.57714 0.81204 5.9388 6.0218
0.60239 0.81083 5.9273 6.0128
0.62441 0.80557 5.8862 5.9738
0.65032 0.80557 5.8834 5.9738
0.67724 0.80678 5.8893 5.9828
0.70505 0.80894 5.902 5.9988
0.73335 0.8115 5.9175 6.0178
0.7594 0.8115 5.9142 6.0178
0.78217 0.80813 5.8863 5.9928
0.80673 0.80678 5.873 5.9828
0.83203 0.80624 5.8654 5.9788
0.85757 0.80597 5.8597 5.9768
0.88277 0.80543 5.852 5.9728
0.90823 0.80516 5.8461 5.9708
0.93149 0.80303 5.8266 5.955
0.95389 0.80031 5.8027 5.9348
0.97745 0.79869 5.7867 5.9228
1.0026 0.79842 5.7804 5.9208
1.028 0.79842 5.7759 5.9208
1.0526 0.79775 5.7664 5.9158
1.0747 0.79532 5.7442 5.8978
1.099 0.79464 5.7346 5.8928
1.1247 0.79494 5.7318 5.895
1.1489 0.79427 5.7219 5.89
1.1741 0.79427 5.7168 5.89
1.1993 0.79427 5.7116 5.89
1.2259 0.79521 5.713 5.897
1.2767 0.81153 5.8247 6.018
1.3467 0.83917 6.0173 6.223
1.4087 0.86088 6.1668 6.384
1.4556 0.87275 6.2455 6.472
1.5154 0.89176 6.3749 6.613
1.5829 0.91455 6.5309 6.782
1.6461 0.93411 6.6634 6.927
1.6999 0.94773 6.7531 7.028
1.7638 0.96647 6.879 7.167
1.8269 0.98414 6.9967 7.298
1.8882 1.0003 7.1035 7.418
1.9749 1.0292 7.2998 7.632
2.1419 1.0984 7.7811 8.145
2.2245 1.1228 7.9443 8.326
2.2654 1.1257 7.9554 8.348
2.306 1.1284 7.9644 8.368
2.3956 1.1547 8.1395 8.563
2.4734 1.1747 8.2694 8.711
2.5205 1.1797 8.2935 8.748
0.92448 0.42651 2.9945 3.1629
0.92536 0.42092 2.9512 3.1214
0.92834 0.41643 2.9157 3.0881
0.93627 0.41426 2.8964 3.072
0.94012 0.41038 2.8651 3.0432
0.94893 0.40875 2.8496 3.0311
0.95667 0.4067 2.8311 3.016
0.96299 0.40413 2.809 2.9969
0.96785 0.40102 2.7832 2.9738
0.97425 0.39863 2.7623 2.9561
0.98358 0.39749 2.7501 2.9476
0.98794 0.3944 2.7244 2.9247
0.98822 0.38978 2.6882 2.8905
0.98888 0.38543 2.6538 2.8582
0.97198 0.37442 2.5738 2.7766
0.99011 0.37701 2.5872 2.7958
0.98832 0.37205 2.5489 2.759
0.98153 0.36535 2.4987 2.7093
0.97894 0.36035 2.4602 2.6722
0.99985 0.36402 2.4809 2.6994
0.95886 0.34533 2.3493 2.5608
1.0004 0.35644 2.4205 2.6432
1.0113 0.35653 2.4167 2.6439
1.036 0.36145 2.4455 2.6804
1.0501 0.3626 2.4486 2.6889
3.4807 1.1897 8.0187 8.8221
3.4228 1.1581 7.7911 8.5883
3.4599 1.1591 7.7823 8.5953
3.4941 1.1591 7.767 8.5953
3.5283 1.1591 7.7516 8.5953
3.5624 1.1591 7.736 8.5953
3.6169 1.1657 7.7642 8.6443
3.6523 1.1661 7.7509 8.6473
3.6881 1.1666 7.7383 8.6513
3.7278 1.1684 7.7336 8.6643
3.7722 1.1716 7.7385 8.6883
3.8102 1.1728 7.7298 8.6973
3.8446 1.173 7.7138 8.6983
3.8906 1.1766 7.7207 8.7253
3.9461 1.1831 7.7459 8.7733
3.9888 1.1856 7.7452 8.7923
3.9035 1.1505 7.4983 8.5314
3.9494 1.1542 7.5056 8.5594
3.988 1.1559 7.4986 8.5714
4.0304 1.1586 7.4984 8.5914
4.0648 1.159 7.4832 8.5944
4.0082 1.1336 7.3021 8.4066
4.1411 1.1619 7.4662 8.6164
4.1832 1.1645 7.4643 8.6354
4.2385 1.1707 7.4855 8.6814
4.2773 1.1723 7.477 8.6934
4.3141 1.1734 7.465 8.7014
4.3624 1.1776 7.4725 8.7324
4.3973 1.1781 7.4566 8.7364
4.3288 1.1512 7.267 8.5366
4.3612 1.1513 7.2487 8.5376
4.4137 1.1567 7.2633 8.5776
4.4456 1.1567 7.2438 8.5776
4.4242 1.1429 7.1383 8.4756
4.3468 1.115 6.9448 8.2686
3.8596 0.98314 6.1065 7.2906
3.058 0.77358 4.7914 5.7366
2.9745 0.74728 4.6155 5.5415
2.9261 0.73016 4.4969 5.4145
2.8352 0.70272 4.3155 5.2111
2.8539 0.70267 4.3026 5.2107
3.4441 0.84237 5.143 6.2467
3.4667 0.84237 5.1277 6.2467
3.4015 0.8212 4.9839 6.0897
3.3172 0.79571 4.8147 5.9007
3.2524 0.77521 4.6764 5.7487
3.1761 0.75229 4.5241 5.5787
3.1129 0.73274 4.3929 5.4337
3.0423 0.7117 4.2534 5.2777
2.9781 0.69242 4.1251 5.1347
2.9105 0.67261 3.9943 4.9878
2.8629 0.65764 3.8929 4.8768
2.7956 0.63836 3.7664 4.7338
2.764 0.62743 3.6899 4.6528
2.7193 0.61368 3.597 4.5508
2.6708 0.59925 3.5007 4.4438
2.6257 0.58576 3.4104 4.3438
2.5848 0.57337 3.3269 4.2519
2.5427 0.56083 3.243 4.1589
2.5034 0.5491 3.1642 4.0719
2.4666 0.53804 3.0896 3.9899
2.4392 0.52914 3.0278 3.9239
2.4106 0.52011 2.9655 3.8569
2.3847 0.51175 2.9074 3.7949
2.352 0.50204 2.8419 3.7229
2.3248 0.49362 2.784 3.6605
2.2876 0.48318 2.7151 3.583
2.254 0.4736 2.6514 3.512
2.2263 0.46537 2.5955 3.451
2.2046 0.4585 2.5475 3.4
2.1865 0.45243 2.5042 3.355
2.1621 0.44515 2.4543 3.301
2.1328 0.43693 2.3997 3.2401
2.1077 0.42966 2.3505 3.1861
2.0867 0.42332 2.3066 3.1391
2.0655 0.41698 2.263 3.0921
2.0459 0.41104 2.2218 3.0481
2.028 0.40551 2.183 3.0071
2.0037 0.39877 2.1379 2.9571
1.9812 0.39244 2.0953 2.9102
1.9583 0.38611 2.0529 2.8633
1.9398 0.38072 2.0157 2.8233
1.9314 0.37735 1.9893 2.7982
1.9207 0.37357 1.961 2.7702
1.8994 0.36777 1.9222 2.7272
1.8795 0.36232 1.8854 2.6868
1.8721 0.35929 1.8615 2.6644
1.8414 0.35187 1.815 2.6094
1.8005 0.34257 1.759 2.5403
1.6545 0.31344 1.6022 2.3243
1.6162 0.30488 1.5514 2.2609
1.596 0.29983 1.5186 2.2234
1.5876 0.297 1.4973 2.2024
1.5768 0.29376 1.4741 2.1784
1.576 0.29242 1.4604 2.1684
1.5668 0.28952 1.4391 2.147
1.5724 0.28939 1.4315 2.146
1.5923 0.29189 1.4368 2.1645
1.5986 0.29189 1.4298 2.1645
nan nan nan -inf
nan nan nan -inf
nan nan nan -inf
nan nan nan -inf
nan nan nan -inf
nan nan nan -inf
nan nan nan -inf
nan nan nan -inf
nan nan nan -inf
nan nan nan -inf
nan nan nan -inf
nan nan nan -inf
nan nan nan -inf
nan nan nan -inf
nan nan nan -inf
nan nan nan -inf
-1.492 0.28345 1.357 2.0366
-1.4882 0.28386 1.3655 2.0397
-1.484 0.28421 1.3737 2.0421
-1.4797 0.28455 1.382 2.0446
-1.4736 0.28455 1.3884 2.0446
-1.4682 0.28469 1.3956 2.0456
-1.462 0.28469 1.4021 2.0456
-1.4604 0.28559 1.4129 2.052
-1.4599 0.2867 1.4249 2.06
-1.4539 0.28676 1.4316 2.0605
-1.4539 0.28802 1.4443 2.0695
-1.4531 0.28913 1.4563 2.0775
-1.4467 0.28913 1.4627 2.0775
-1.4371 0.2885 1.4658 2.0729
-1.435 0.28939 1.4767 2.0794
-1.4292 0.28953 1.4837 2.0804
-1.4261 0.29023 1.4936 2.0854
-1.4195 0.29023 1.4999 2.0854
-1.4156 0.29079 1.509 2.0894
-1.4176 0.29259 1.5246 2.1023
-1.4109 0.29258 1.5308 2.1023
-1.4041 0.29258 1.537 2.1023
-1.3907 0.29119 1.5359 2.0923
-1.3753 0.28938 1.5324 2.0793
-1.279 0.27045 1.4378 1.9433
-1.2301 0.26141 1.3952 1.8783
-1.2083 0.25807 1.3827 1.8543
-1.1756 0.25235 1.3572 1.8132
-1.1489 0.24789 1.3383 1.7812
-1.1289 0.24483 1.3268 1.7592
-1.1122 0.24246 1.3189 1.7422
-1.1045 0.24205 1.3215 1.7392
-1.0955 0.24135 1.3225 1.7342
-1.0871 0.2408 1.3243 1.7302
-1.0759 0.2396 1.3225 1.7216
-1.0685 0.23925 1.3252 1.7191
-1.0491 0.23619 1.3129 1.6971
-1.0267 0.23243 1.2966 1.6701
-1.0154 0.23118 1.2941 1.6611
-0.99879 0.22867 1.2845 1.6431
-0.97136 0.22366 1.2606 1.6071
-0.95438 0.22102 1.2499 1.5881
-0.94767 0.22074 1.2525 1.5861
-0.93468 0.21899 1.2467 1.5735
-0.92707 0.21849 1.248 1.5699
-0.9198 0.21808 1.2497 1.5669
-0.91429 0.21808 1.2537 1.567
-0.90876 0.21808 1.2578 1.567
-0.90436 0.21836 1.2634 1.569
-0.89879 0.21836 1.2673 1.569
-0.89319 0.21836 1.2713 1.569
-0.88419 0.21752 1.2703 1.563
-0.88108 0.21814 1.2778 1.5674
-0.88015 0.21931 1.2886 1.5758
-0.87668 0.21987 1.2957 1.5798
-0.87097 0.21987 1.2996 1.5798
-0.86523 0.21987 1.3034 1.5798
-0.85948 0.21987 1.3072 1.5798
-0.8548 0.22015 1.3127 1.5818
-0.85813 0.22252 1.3306 1.5988
-0.85492 0.22321 1.3385 1.6038
-0.84902 0.22321 1.3423 1.6038
-0.84144 0.22277 1.3434 1.6007
-0.83552 0.22277 1.347 1.6007
-0.82957 0.22278 1.3507 1.6007
-0.8267 0.22361 1.3594 1.6067
-0.82071 0.22361 1.3631 1.6067
-0.81469 0.22361 1.3667 1.6067
-0.80514 0.22264 1.3643 1.5997
-0.79912 0.22264 1.3678 1.5997
-0.79309 0.22264 1.3713 1.5997
-0.79688 0.22542 1.392 1.6197
-0.7922 0.22584 1.3981 1.6227
-0.786 0.22583 1.4015 1.6226
-0.7793 0.22568 1.404 1.6216
-0.77883 0.22735 1.4179 1.6336
-0.77257 0.22735 1.4213 1.6336
-0.76818 0.22791 1.4281 1.6376
-0.76933 0.23013 1.4455 1.6536
-0.77264 0.23306 1.4673 1.6746
-0.78035 0.23737 1.4979 1.7056
-0.77601 0.23807 1.5057 1.7106
-0.77162 0.23876 1.5135 1.7156
-0.76896 0.24002 1.5249 1.7246
-0.76267 0.24015 1.5292 1.7256
-0.76553 0.24321 1.552 1.7475
-0.763 0.24459 1.5642 1.7574
-0.77718 0.25141 1.6112 1.8064
-0.78755 0.25711 1.6513 1.8474
-0.78027 0.25711 1.6547 1.8474
-0.77297 0.25711 1.6581 1.8474
-0.76151 0.25572 1.6525 1.8374
-0.75422 0.25572 1.6559 1.8374
-0.74692 0.25572 1.6592 1.8374
-0.74644 0.25809 1.6778 1.8544
-0.77053 0.26908 1.7527 1.9334
-0.84131 0.29678 1.9369 2.1324
-1.0011 0.35676 2.3328 2.5634
-1.0032 0.36122 2.3663 2.5954
-1.0003 0.36398 2.3889 2.6153
-0.99167 0.36467 2.3978 2.6203
-0.98409 0.36579 2.4095 2.6283
-0.97717 0.36718 2.423 2.6383
-0.97491 0.37038 2.4484 2.6613
-0.96955 0.37247 2.4665 2.6763
-0.96225 0.37386 2.48 2.6863
-0.95202 0.37414 2.4861 2.6883
-0.94281 0.37483 2.4949 2.6933
-0.93215 0.37497 2.4999 2.6943
-0.93036 0.37873 2.5291 2.7213
-0.92664 0.38179 2.5537 2.7433
-0.91872 0.38318 2.5671 2.7533
-0.90904 0.38388 2.5757 2.7583
-0.89801 0.38402 2.5807 2.7593
-0.89209 0.38639 2.6005 2.7763
-0.88221 0.38708 2.6091 2.7813
-0.88167 0.39195 2.6459 2.8163
-0.86377 0.38915 2.6307 2.7961
-0.8607 0.39304 2.6609 2.8241
-0.85138 0.39416 2.6722 2.8321
-0.84908 0.39861 2.7062 2.8641
-0.83773 0.39889 2.7118 2.8661
-0.8275 0.39972 2.7211 2.8721
-0.81976 0.40181 2.739 2.8871
-0.80825 0.40209 2.7445 2.8891
-0.80193 0.40501 2.768 2.9101
-0.80004 0.4103 2.8077 2.9481
-0.79007 0.41155 2.8198 2.9571
-0.77974 0.41267 2.8309 2.9651
-0.76726 0.41267 2.8343 2.9651
-0.75476 0.41267 2.8376 2.9651
-0.71397 0.39694 2.7326 2.8521
-0.67312 0.38066 2.6235 2.7351
-0.65237 0.37537 2.59 2.6971
-0.64095 0.37537 2.5928 2.6971
-0.62952 0.37537 2.5956 2.6971
-0.61808 0.37537 2.5984 2.6971
-0.60662 0.37537 2.6011 2.6971
-0.59515 0.37537 2.6037 2.6971
