# .PCD v.6 - Point Cloud Data file format
FIELDS x y z range
SIZE 4 4 4 4
TYPE F F F F
COUNT 1 1 1 1
WIDTH 1600
HEIGHT 1
POINTS 1600
DATA ascii
-2.0197 -0.38732 3.4787 4.0411
-2.0044 -0.38732 3.4875 4.0411
-1.9866 -0.38684 3.4919 4.0361
-1.9703 -0.38665 3.4988 4.034
-1.9486 -0.3854 3.4961 4.021
-1.9299 -0.38473 3.4985 4.014
-1.9146 -0.38472 3.5069 4.014
-1.8973 -0.38434 3.5118 4.01
-1.8814 -0.38424 3.5191 4.0089
-1.8631 -0.38366 3.5221 4.0029
-1.8449 -0.38309 3.5249 3.9969
-1.8294 -0.38309 3.5329 3.9969
-1.8139 -0.38308 3.5409 3.9969
-1.7979 -0.38299 3.5479 3.9959
-1.7792 -0.38232 3.5496 3.9889
-1.7593 -0.38137 3.5485 3.979
-1.7437 -0.38137 3.5561 3.979
-1.7281 -0.38136 3.5637 3.9789
-1.7124 -0.38136 3.5713 3.9789
-1.6955 -0.38107 3.576 3.9759
-1.6781 -0.38069 3.5798 3.9719
-1.6594 -0.38002 3.5808 3.9649
-1.6437 -0.38001 3.588 3.9649
-1.628 -0.38001 3.5952 3.9648
-1.6106 -0.37963 3.5986 3.9608
-1.5911 -0.37876 3.5974 3.9518
-1.5742 -0.37847 3.6016 3.9488
-1.5564 -0.37799 3.6039 3.9438
-1.5406 -0.37799 3.6107 3.9438
-1.5247 -0.37799 3.6174 3.9437
-1.5062 -0.37732 3.6176 3.9367
-1.4903 -0.37732 3.6241 3.9367
-1.474 -0.37722 3.6297 3.9357
-1.4558 -0.37664 3.6306 3.9297
-1.4399 -0.37664 3.6369 3.9297
-1.4218 -0.37607 3.6376 3.9237
-1.4058 -0.37606 3.6438 3.9236
-1.3898 -0.37606 3.6499 3.9236
-1.3721 -0.3756 3.6514 3.9188
-1.3554 -0.3754 3.6555 3.9168
-1.3394 -0.3754 3.6614 3.9167
-1.3226 -0.37521 3.6654 3.9147
-1.3062 -0.37511 3.6702 3.9137
-1.2901 -0.37511 3.6759 3.9137
-1.2727 -0.37473 3.6777 3.9097
-1.2546 -0.37415 3.6776 3.9037
-1.2385 -0.37415 3.6831 3.9037
-1.222 -0.37405 3.6875 3.9027
-1.2058 -0.37405 3.6928 3.9026
-1.1893 -0.37396 3.6971 3.9016
-1.1731 -0.37395 3.7023 3.9016
-1.1565 -0.37386 3.7064 3.9006
-1.1403 -0.37386 3.7114 3.9006
-1.124 -0.37386 3.7164 3.9006
-1.1065 -0.37347 3.7174 3.8966
-1.0916 -0.37395 3.727 3.9016
-1.0753 -0.37395 3.7318 3.9016
-1.0589 -0.37395 3.7364 3.9015
-1.0425 -0.37395 3.741 3.9015
-1.0261 -0.37394 3.7456 3.9015
-1.0107 -0.37433 3.7538 3.9055
-0.99425 -0.37433 3.7582 3.9055
-0.97776 -0.37433 3.7625 3.9055
-0.96052 -0.37404 3.7639 3.9025
-0.9428 -0.37356 3.7632 3.8975
-0.92629 -0.37356 3.7673 3.8975
-0.91093 -0.37403 3.7762 3.9025
-0.89414 -0.37394 3.7792 3.9015
-0.87756 -0.37394 3.783 3.9014
-0.86097 -0.37394 3.7868 3.9014
-0.84393 -0.37374 3.7886 3.8994
-0.82731 -0.37374 3.7923 3.8994
-0.81068 -0.37374 3.7959 3.8994
-0.79525 -0.37432 3.8052 3.9054
-0.77856 -0.37432 3.8087 3.9054
-0.76186 -0.37431 3.812 3.9054
-0.74479 -0.37414 3.8135 3.9036
-0.72841 -0.37431 3.8185 3.9054
-0.71184 -0.37441 3.8227 3.9064
-0.69615 -0.37498 3.8316 3.9124
-0.67934 -0.37498 3.8346 3.9124
-0.66289 -0.37519 3.8397 3.9145
-0.64605 -0.37519 3.8426 3.9145
-0.6292 -0.37519 3.8453 3.9145
-0.6125 -0.37528 3.849 3.9155
-0.59668 -0.37595 3.8586 3.9225
-0.57976 -0.37595 3.8611 3.9225
-0.56326 -0.37624 3.8666 3.9255
-0.5463 -0.37624 3.869 3.9255
-0.53001 -0.37672 3.8763 3.9305
-0.51354 -0.3771 3.8825 3.9345
-0.49651 -0.3771 3.8847 3.9345
-0.47948 -0.3771 3.8869 3.9345
-0.46244 -0.3771 3.8889 3.9345
-0.44561 -0.37729 3.8929 3.9364
-0.42854 -0.37729 3.8948 3.9364
-0.41355 -0.37921 3.9165 3.9564
-0.39638 -0.37921 3.9182 3.9564
-0.3792 -0.37921 3.9199 3.9564
-0.36202 -0.37921 3.9215 3.9564
-0.34482 -0.37921 3.9231 3.9564
-0.32762 -0.37921 3.9246 3.9564
-0.31073 -0.37959 3.9299 3.9604
-0.29409 -0.38036 3.9392 3.9684
-0.27703 -0.38064 3.9434 3.9714
-0.26 -0.38103 3.9486 3.9754
-0.24245 -0.38064 3.9457 3.9714
-0.22555 -0.38131 3.9537 3.9784
-0.2091 -0.38294 3.9715 3.9954
-0.19169 -0.38294 3.9724 3.9954
-0.17428 -0.38294 3.9732 3.9954
-0.1569 -0.38304 3.9749 3.9964
-0.13968 -0.38361 3.9815 4.0024
-0.12229 -0.3838 3.9841 4.0044
-0.10482 -0.3838 3.9846 4.0044
-0.087378 -0.3839 3.986 4.0054
-0.070166 -0.38534 4.0013 4.0204
-0.052626 -0.38534 4.0015 4.0204
-0.035085 -0.38534 4.0017 4.0204
-0.017561 -0.38572 4.0058 4.0244
0 -0.38591 4.0079 4.0264
0.017568 -0.38591 4.0078 4.0264
0.035311 -0.38783 4.0276 4.0464
0.053096 -0.38879 4.0374 4.0564
0.070811 -0.38888 4.0381 4.0574
0.088533 -0.38898 4.0387 4.0584
0.10629 -0.38917 4.0403 4.0604
0.12424 -0.38994 4.0478 4.0684
0.14209 -0.39023 4.0502 4.0714
0.15988 -0.39032 4.0505 4.0724
0.17881 -0.39291 4.0766 4.0994
0.19668 -0.39291 4.0758 4.0994
0.2146 -0.39301 4.0759 4.1004
0.23263 -0.39329 4.0779 4.1034
0.25051 -0.39329 4.0768 4.1034
0.26909 -0.39435 4.0866 4.1144
0.28756 -0.39512 4.0933 4.1224
0.30632 -0.39617 4.103 4.1334
0.32493 -0.39694 4.1095 4.1414
0.34302 -0.39703 4.1091 4.1424
0.36164 -0.39771 4.1145 4.1494
0.38032 -0.39838 4.1198 4.1564
0.39895 -0.39895 4.124 4.1624
0.41722 -0.39914 4.1242 4.1644
0.4353 -0.39914 4.1224 4.1644
0.45336 -0.39914 4.1204 4.1644
0.47221 -0.39982 4.1253 4.1715
0.49088 -0.4003 4.1281 4.1765
0.51019 -0.40125 4.1358 4.1865
0.53046 -0.40288 4.1504 4.2035
0.54865 -0.40289 4.148 4.2035
0.56696 -0.40298 4.1465 4.2045
0.58652 -0.40394 4.1539 4.2145
0.60631 -0.405 4.1621 4.2255
0.62499 -0.40528 4.1624 4.2285
0.6449 -0.40634 4.1704 4.2395
0.66521 -0.40758 4.1803 4.2525
0.68334 -0.40747 4.1762 4.2513
0.70346 -0.40853 4.184 4.2623
0.72179 -0.40853 4.1809 4.2623
0.74275 -0.40998 4.1925 4.2775
0.76287 -0.41092 4.1989 4.2874
0.7833 -0.412 4.2064 4.2985
0.80376 -0.41304 4.2136 4.3094
0.81806 -0.41094 4.1887 4.2876
0.8393 -0.41237 4.1995 4.3024
0.8577 -0.41237 4.1958 4.3024
0.87365 -0.41122 4.1803 4.2904
0.89009 -0.41035 4.1677 4.2814
0.90581 -0.40921 4.1521 4.2694
0.92011 -0.40748 4.1306 4.2514
0.92497 -0.40173 4.0683 4.1914
0.93739 -0.39943 4.041 4.1674
0.94525 -0.39531 3.9952 4.1244
0.95785 -0.3933 3.9707 4.1035
0.96313 -0.38841 3.9171 4.0525
0.97497 -0.3863 3.8917 4.0305
0.98267 -0.38266 3.8507 3.9925
0.99053 -0.37921 3.8117 3.9565
0.99552 -0.37481 3.763 3.9105
1.0037 -0.37174 3.7279 3.8785
1.0122 -0.36886 3.6947 3.8485
1.0195 -0.3657 3.6586 3.8155
1.0239 -0.36158 3.6129 3.7725
1.0337 -0.35947 3.5873 3.7506
1.0365 -0.35507 3.5388 3.7046
1.0506 -0.35459 3.5295 3.6996
1.0401 -0.34596 3.4391 3.6096
1.0315 -0.3382 3.3575 3.5286
1.0462 -0.3382 3.3529 3.5286
1.0609 -0.3382 3.3483 3.5286
1.0841 -0.34089 3.3702 3.5566
1.0995 -0.34108 3.3673 3.5586
1.1161 -0.34166 3.3681 3.5647
1.1322 -0.34204 3.367 3.5687
1.1472 -0.34214 3.3629 3.5697
1.1691 -0.34425 3.3786 3.5917
1.1869 -0.34511 3.3819 3.6007
1.2017 -0.34511 3.3767 3.6007
1.2192 -0.34588 3.3789 3.6087
1.234 -0.34588 3.3735 3.6087
1.246 -0.34512 3.3606 3.6008
1.2601 -0.34493 3.3533 3.5988
1.2039 -0.32575 3.1615 3.3986
1.2177 -0.32575 3.1562 3.3986
1.2062 -0.31904 3.086 3.3287
1.2105 -0.31664 3.0575 3.3037
1.2161 -0.31463 3.0328 3.2827
1.2201 -0.31224 3.0044 3.2577
1.2298 -0.31138 2.9908 3.2487
1.2303 -0.30821 2.955 3.2157
1.2405 -0.30754 2.9432 3.2087
1.2452 -0.30553 2.9185 3.1878
1.249 -0.30333 2.892 3.1648
1.2544 -0.30161 2.8701 3.1468
1.2666 -0.30151 2.8637 3.1458
1.2788 -0.30142 2.8572 3.1448
1.29 -0.30113 2.8489 3.1418
1.2884 -0.29787 2.8125 3.1079
1.2899 -0.29538 2.7833 3.0819
1.3004 -0.295 2.774 3.0779
1.3121 -0.29491 2.7674 3.0769
1.3229 -0.29462 2.759 3.0739
1.3285 -0.29319 2.7397 3.0589
1.3326 -0.29146 2.7178 3.041
1.3414 -0.29079 2.7057 3.034
1.3533 -0.29079 2.6998 3.034
1.3683 -0.29147 2.7001 3.041
1.3833 -0.29213 2.7002 3.0479
1.3996 -0.29309 2.7029 3.0579
1.423 -0.29548 2.7188 3.0829
1.4359 -0.29568 2.7143 3.0849
1.46 -0.29817 2.7309 3.1109
1.4724 -0.29827 2.7253 3.112
1.4843 -0.29827 2.7189 3.112
1.5121 -0.30144 2.7411 3.145
1.826 -0.36115 3.2761 3.768
1.8404 -0.36115 3.2681 3.768
1.8547 -0.36115 3.26 3.7681
1.808 -0.34937 3.1457 3.6451
1.6368 -0.3139 2.8193 3.2751
1.6492 -0.31391 2.8121 3.2751
1.6615 -0.31391 2.8049 3.2751
1.6728 -0.31372 2.7959 3.2732
1.6845 -0.31362 2.7877 3.2722
1.6804 -0.3106 2.7535 3.2406
1.6924 -0.3106 2.7461 3.2406
1.7073 -0.31112 2.7433 3.2461
1.8994 -0.34371 3.0223 3.5861
1.9127 -0.34372 3.014 3.5861
1.9259 -0.34372 3.0056 3.5862
1.925 -0.34123 2.9754 3.5602
1.9337 -0.34046 2.9603 3.5522
1.8913 -0.33079 2.8679 3.4512
1.8906 -0.32849 2.8397 3.4273
1.8975 -0.32753 2.8231 3.4173
1.9099 -0.32753 2.8148 3.4173
1.9166 -0.32658 2.7982 3.4073
1.9277 -0.32639 2.7882 3.4053
1.9399 -0.32639 2.7797 3.4054
1.9618 -0.32802 2.785 3.4224
2.0962 -0.34833 2.9483 3.6343
2.1057 -0.34776 2.9342 3.6283
2.0753 -0.34067 2.8653 3.5543
1.8623 -0.30386 2.5477 3.1703
1.8368 -0.29792 2.4898 3.1084
1.7836 -0.28758 2.3955 3.0004
1.7755 -0.28461 2.363 2.9694
1.7859 -0.28461 2.3553 2.9694
1.7907 -0.28375 2.3403 2.9605
1.7967 -0.28308 2.3269 2.9535
1.8069 -0.28308 2.3191 2.9535
1.8171 -0.28308 2.3111 2.9535
1.8068 -0.27992 2.2774 2.9205
1.8074 -0.27848 2.2578 2.9055
1.8173 -0.27848 2.2498 2.9055
1.8271 -0.27848 2.2419 2.9055
1.842 -0.27925 2.24 2.9135
2.1105 -0.31826 2.5437 3.3206
2.1217 -0.31826 2.5345 3.3206
2.1328 -0.31827 2.5252 3.3206
2.1226 -0.31511 2.4908 3.2876
2.1082 -0.31137 2.4521 3.2487
2.1189 -0.31137 2.4428 3.2487
2.1296 -0.31138 2.4335 3.2487
2.1935 -0.31913 2.4845 3.3296
2.2044 -0.31913 2.4749 3.3296
2.2153 -0.31914 2.4652 3.3297
2.2241 -0.31885 2.4533 3.3267
2.2234 -0.31722 2.4311 3.3097
2.2327 -0.31703 2.4199 3.3078
2.2426 -0.31694 2.4093 3.3068
2.2532 -0.31694 2.3995 3.3068
2.2589 -0.31628 2.3846 3.2998
2.2583 -0.31474 2.3631 3.2838
2.2659 -0.31435 2.3503 3.2798
2.2644 -0.31273 2.3282 3.2628
2.2739 -0.31263 2.3176 3.2618
2.2784 -0.31187 2.302 3.2539
2.2759 -0.31015 2.2793 3.2359
2.2845 -0.30996 2.2679 3.2339
2.2901 -0.30939 2.2537 3.228
2.2943 -0.30862 2.2381 3.22
2.2966 -0.30761 2.2208 3.2095
2.2966 -0.30632 2.2014 3.196
2.3055 -0.30622 2.1906 3.195
2.3122 -0.30584 2.1778 3.191
2.3101 -0.30431 2.1568 3.175
2.302 -0.30202 2.1304 3.1511
2.3084 -0.30163 2.1176 3.1471
2.317 -0.30154 2.1068 3.1461
2.3254 -0.30144 2.096 3.1451
2.3338 -0.30134 2.0851 3.144
nan nan nan -inf
nan nan nan -inf
nan nan nan -inf
nan nan nan -inf
nan nan nan -inf
nan nan nan -inf
nan nan nan -inf
nan nan nan -inf
nan nan nan -inf
nan nan nan -inf
nan nan nan -inf
nan nan nan -inf
nan nan nan -inf
nan nan nan -inf
-2.626 -0.32623 2.3894 3.5653
-2.6227 -0.32714 2.4076 3.5752
-2.6348 -0.32997 2.44 3.6062
-2.6379 -0.33171 2.4644 3.6251
-2.6451 -0.33399 2.493 3.6501
-2.6674 -0.3382 2.5362 3.6961
-2.6721 -0.34021 2.563 3.7181
-2.673 -0.34177 2.5864 3.7352
-2.6951 -0.34607 2.6308 3.7821
-2.6977 -0.3479 2.6565 3.8021
-2.6959 -0.34918 2.6781 3.8161
-2.6933 -0.35036 2.6991 3.829
-2.7031 -0.3532 2.7328 3.86
-2.7099 -0.35566 2.7638 3.887
-2.7463 -0.36207 2.8256 3.9569
-2.7298 -0.36152 2.8333 3.951
-2.7408 -0.36464 2.8697 3.985
-2.7535 -0.36802 2.9085 4.022
-2.7973 -0.37561 2.9807 4.105
-2.9476 -0.39766 3.1687 4.3459
-2.958 -0.40095 3.2079 4.3819
-2.9439 -0.40095 3.2208 4.3819
-2.9297 -0.40095 3.2336 4.3818
-2.9148 -0.40085 3.2457 4.3808
-2.8979 -0.40048 3.2554 4.3768
-2.8715 -0.39879 3.2543 4.3583
-2.8473 -0.39742 3.2556 4.3433
-2.8203 -0.39564 3.2534 4.3238
-2.8028 -0.39518 3.2619 4.3188
-2.7865 -0.3949 3.2719 4.3158
-2.7721 -0.3949 3.2841 4.3158
-2.7475 -0.39343 3.2839 4.2997
-2.7242 -0.39215 3.2852 4.2857
-2.7085 -0.39196 3.2955 4.2837
-2.6864 -0.39086 3.2981 4.2716
-2.6682 -0.39031 3.3051 4.2656
-2.6478 -0.38945 3.3095 4.2562
-2.6283 -0.38871 3.3148 4.2481
-2.6067 -0.38766 3.3173 4.2367
-2.5885 -0.38711 3.3239 4.2307
-2.5726 -0.38693 3.3336 4.2286
-2.5507 -0.38583 3.3354 4.2166
-2.5289 -0.38473 3.337 4.2046
-2.5118 -0.38436 3.3448 4.2006
-2.4947 -0.38399 3.3526 4.1965
-2.477 -0.38353 3.3594 4.1915
-2.4617 -0.38344 3.3694 4.1905
-2.4387 -0.38215 3.3689 4.1765
-2.4146 -0.38069 3.3666 4.1604
-2.3982 -0.38042 3.3747 4.1575
-2.3822 -0.38023 3.3836 4.1555
-2.3651 -0.37987 3.3907 4.1515
-2.3485 -0.37959 3.3986 4.1485
-2.3251 -0.37822 3.3965 4.1335
-2.3052 -0.37739 3.3992 4.1244
-2.2836 -0.37629 3.3993 4.1124
-2.2687 -0.37629 3.4093 4.1124
-2.2531 -0.3762 3.4184 4.1114
-2.237 -0.37601 3.4265 4.1093
-2.2177 -0.37528 3.4296 4.1013
-2.1951 -0.374 3.4275 4.0873
-2.1795 -0.3739 3.4362 4.0863
-2.1644 -0.3739 3.4457 4.0863
-2.1493 -0.3739 3.4552 4.0862
-2.1318 -0.37349 3.4608 4.0818
-2.1057 -0.37157 3.4522 4.0608
-2.0893 -0.37134 3.4593 4.0583
-2.0716 -0.37088 3.4641 4.0533
-2.0564 -0.37088 3.4732 4.0533
-2.0391 -0.37051 3.4787 4.0493
-2.0218 -0.37015 3.4841 4.0452
-1.9996 -0.36886 3.4809 4.0312
-1.9823 -0.3685 3.4861 4.0272
-1.967 -0.36849 3.4947 4.0272
-1.9512 -0.3684 3.5024 4.0262
-1.9358 -0.3684 3.5109 4.0262
-1.9204 -0.3684 3.5194 4.0261
-1.8998 -0.36739 3.5181 4.0151
-1.8815 -0.36684 3.5211 4.0091
-1.8651 -0.36665 3.5275 4.0071
-1.8496 -0.36665 3.5357 4.0071
-1.8328 -0.36638 3.5411 4.004
-1.8154 -0.36601 3.5455 4
-1.7944 -0.36491 3.5427 3.988
-1.7745 -0.36401 3.5418 3.9781
-1.759 -0.364 3.5495 3.9781
-1.7434 -0.364 3.5572 3.9781
-1.7278 -0.364 3.5648 3.9781
-1.7121 -0.364 3.5723 3.9781
-1.6896 -0.36253 3.5653 3.9621
-1.6672 -0.36107 3.5583 3.946
-1.6516 -0.36107 3.5655 3.946
-1.636 -0.36107 3.5727 3.946
-1.6207 -0.36116 3.5807 3.947
-1.605 -0.36115 3.5878 3.947
-1.5892 -0.36115 3.5948 3.947
-1.5723 -0.36088 3.5989 3.9439
-1.5561 -0.36078 3.6049 3.9429
-1.5403 -0.36078 3.6116 3.9429
-1.5209 -0.35996 3.6101 3.9339
-1.5066 -0.36032 3.6204 3.9379
-1.4907 -0.36032 3.6269 3.9379
-1.473 -0.35986 3.6288 3.9329
-1.4548 -0.35931 3.6297 3.9268
-1.4389 -0.35931 3.636 3.9268
-1.4226 -0.35922 3.6413 3.9258
-1.4066 -0.35922 3.6475 3.9258
-1.3881 -0.35858 3.6471 3.9188
-1.3721 -0.35857 3.6531 3.9188
-1.3534 -0.35786 3.6518 3.9109
-1.3374 -0.35785 3.6577 3.9109
-1.3213 -0.35785 3.6635 3.9109
-1.3056 -0.35794 3.6702 3.9119
-1.2915 -0.35849 3.6815 3.9179
-1.2753 -0.35849 3.6871 3.9179
-1.2592 -0.35849 3.6926 3.9178
-1.242 -0.35821 3.6953 3.9148
-1.2233 -0.35748 3.6931 3.9068
-1.2071 -0.35748 3.6984 3.9068
-1.1909 -0.35748 3.7037 3.9068
-1.1746 -0.35748 3.7088 3.9068
-1.1539 -0.3561 3.6997 3.8918
-1.1377 -0.3561 3.7047 3.8918
-1.1215 -0.3561 3.7096 3.8918
-1.1055 -0.35619 3.7154 3.8927
-1.0892 -0.35619 3.7202 3.8927
-1.0729 -0.35619 3.725 3.8927
-1.0606 -0.35756 3.744 3.9077
-1.041 -0.35646 3.7371 3.8957
-1.0246 -0.35646 3.7416 3.8957
-1.0087 -0.35664 3.748 3.8977
-0.99532 -0.35774 3.7639 3.9097
-0.97681 -0.35701 3.7605 3.9017
-0.96032 -0.35701 3.7647 3.9017
-0.94309 -0.35673 3.766 3.8986
-0.92658 -0.35673 3.7701 3.8986
-0.90981 -0.35664 3.7731 3.8976
-0.89327 -0.35664 3.7771 3.8976
-0.87671 -0.35664 3.7809 3.8976
-0.86013 -0.35664 3.7847 3.8976
-0.8444 -0.357 3.7924 3.9016
-0.82778 -0.357 3.796 3.9016
-0.81155 -0.35718 3.8015 3.9036
-0.79448 -0.357 3.8031 3.9016
-0.7778 -0.357 3.8065 3.9016
-0.76151 -0.35718 3.8119 3.9036
-0.74518 -0.35736 3.8171 3.9056
-0.72919 -0.35773 3.8242 3.9095
-0.71333 -0.35819 3.8323 3.9145
-0.69653 -0.35819 3.8354 3.9145
-0.67972 -0.35819 3.8384 3.9145
-0.6629 -0.35818 3.8413 3.9145
-0.64606 -0.35818 3.8442 3.9145
-0.6292 -0.35818 3.847 3.9145
-0.61234 -0.35818 3.8497 3.9145
-0.59562 -0.35827 3.8533 3.9155
-0.57949 -0.35875 3.861 3.9207
-0.56283 -0.35891 3.8653 3.9225
-0.54631 -0.35919 3.8706 3.9255
-0.52934 -0.35919 3.873 3.9255
-0.51302 -0.35964 3.8802 3.9305
-0.49691 -0.3603 3.8895 3.9376
-0.47987 -0.3603 3.8916 3.9376
-0.46281 -0.3603 3.8937 3.9376
-0.44574 -0.3603 3.8957 3.9376
-0.42856 -0.36021 3.8966 3.9366
-0.41148 -0.36021 3.8984 3.9366
-0.3944 -0.36021 3.9002 3.9366
-0.37864 -0.36149 3.9158 3.9506
-0.36148 -0.36149 3.9174 3.9506
-0.34475 -0.36194 3.9239 3.9556
-0.32755 -0.36194 3.9254 3.9556
-0.31035 -0.36194 3.9268 3.9556
-0.29314 -0.36194 3.9281 3.9556
-0.2783 -0.36505 3.9631 3.9896
-0.26093 -0.36505 3.9643 3.9896
-0.24356 -0.36505 3.9654 3.9896
-0.22584 -0.3645 3.9604 3.9836
-0.20848 -0.3645 3.9614 3.9836
-0.19112 -0.3645 3.9623 3.9836
-0.17411 -0.36524 3.971 3.9916
-0.15687 -0.3656 3.9757 3.9956
-0.13969 -0.36624 3.9833 4.0026
-0.12223 -0.36624 3.9839 4.0026
-0.10478 -0.36624 3.9844 4.0026
-0.087491 -0.36697 3.9928 4.0106
-0.070134 -0.36771 4.0011 4.0186
-0.052615 -0.3678 4.0024 4.0196
-0.035086 -0.36789 4.0035 4.0206
-0.017557 -0.36816 4.0067 4.0236
0 -0.36825 4.0077 4.0246
0.017582 -0.36871 4.0126 4.0296
0.035251 -0.36963 4.0225 4.0396
0.052968 -0.37027 4.0292 4.0466
0.070884 -0.37164 4.0439 4.0616
0.088668 -0.37192 4.0465 4.0646
0.1064 -0.37192 4.0461 4.0646
0.12413 -0.37192 4.0456 4.0646
0.14185 -0.37192 4.045 4.0646
0.16032 -0.37365 4.0633 4.0836
0.17825 -0.37393 4.0655 4.0866
0.19631 -0.37439 4.0697 4.0916
0.21419 -0.37448 4.0698 4.0926
0.23236 -0.37503 4.0748 4.0986
0.25052 -0.37549 4.0787 4.1036
0.26865 -0.37585 4.0815 4.1076
0.28688 -0.37631 4.0853 4.1126
0.30581 -0.37759 4.0979 4.1266
0.32392 -0.37777 4.0985 4.1286
0.34221 -0.37814 4.101 4.1326
0.36061 -0.3786 4.1044 4.1376
0.37905 -0.37906 4.1078 4.1426
0.39762 -0.3796 4.112 4.1486
0.41614 -0.38006 4.1152 4.1536
0.43615 -0.3818 4.1322 4.1726
0.45447 -0.38199 4.1322 4.1746
0.47336 -0.38263 4.1371 4.1816
0.49231 -0.38327 4.1419 4.1886
0.50897 -0.38215 4.1277 4.1765
0.52832 -0.38307 4.1353 4.1865
0.5475 -0.38382 4.141 4.1946
0.56577 -0.38391 4.1396 4.1956
0.58513 -0.38472 4.1457 4.2045
0.60473 -0.38563 4.153 4.2145
0.62383 -0.3862 4.1564 4.2207
0.64295 -0.38675 4.1595 4.2267
0.66289 -0.38775 4.1675 4.2377
0.68594 -0.39048 4.1939 4.2675
0.70498 -0.39085 4.1948 4.2715
0.72437 -0.3914 4.1975 4.2775
0.74623 -0.39323 4.2139 4.2975
0.76486 -0.39332 4.2116 4.2985
0.78331 -0.39332 4.2082 4.2985
0.80174 -0.39332 4.2048 4.2985
0.81806 -0.39232 4.1905 4.2876
0.83641 -0.39232 4.1868 4.2876
0.85475 -0.39232 4.1831 4.2876
0.87287 -0.39223 4.1784 4.2866
0.89117 -0.39223 4.1745 4.2866
0.90458 -0.39013 4.1482 4.2636
0.91734 -0.38784 4.1199 4.2386
0.92766 -0.38464 4.0819 4.2036
0.93856 -0.3818 4.0477 4.1726
0.94575 -0.37759 3.999 4.1266
0.95533 -0.37448 3.9619 4.0926
0.96698 -0.37229 3.9345 4.0686
0.97768 -0.36982 3.9041 4.0416
0.97804 -0.3636 3.8342 3.9737
0.98257 -0.35911 3.7827 3.9247
0.9887 -0.35536 3.7389 3.8837
0.99938 -0.35335 3.7134 3.8617
1.0112 -0.3518 3.6926 3.8447
1.0183 -0.34869 3.6555 3.8107
1.0231 -0.34494 3.6118 3.7697
1.0326 -0.34283 3.5853 3.7467
1.0366 -0.33899 3.5406 3.7047
1.043 -0.33606 3.5055 3.6727
1.0431 -0.33121 3.4504 3.6198
1.029 -0.32206 3.3506 3.5198
1.0436 -0.32207 3.346 3.5198
1.0583 -0.32207 3.3414 3.5198
1.0784 -0.32371 3.3538 3.5378
1.0974 -0.325 3.3624 3.5518
1.1137 -0.32546 3.3622 3.5568
1.1303 -0.32601 3.363 3.5628
1.1489 -0.3271 3.3693 3.5748
1.1702 -0.32894 3.3831 3.5949
1.187 -0.32949 3.3836 3.6009
1.2055 -0.33049 3.3887 3.6119
1.2213 -0.33077 3.3862 3.6149
1.2362 -0.33077 3.3808 3.6149
1.2454 -0.32929 3.3603 3.5988
1.2184 -0.31841 3.2439 3.4798
1.2326 -0.31841 3.2385 3.4798
1.2185 -0.31118 3.1597 3.4008
1.212 -0.30606 3.1024 3.3448
1.2128 -0.30285 3.0647 3.3098
1.2103 -0.29892 3.0196 3.2668
1.2224 -0.29865 3.0115 3.2639
1.2269 -0.29654 2.985 3.2409
1.2312 -0.29444 2.9584 3.2179
1.2403 -0.29353 2.9438 3.2079
1.2488 -0.29252 2.9283 3.1969
1.2534 -0.2906 2.9036 3.1759
1.2565 -0.28841 2.8762 3.1519
1.2655 -0.28759 2.8625 3.143
1.2703 -0.28585 2.8397 3.124
1.275 -0.28411 2.8169 3.105
1.284 -0.28338 2.804 3.097
1.2912 -0.28228 2.7875 3.085
1.2975 -0.28101 2.7692 3.071
1.3033 -0.27963 2.7501 3.0561
1.314 -0.27936 2.7416 3.0531
1.3256 -0.27927 2.735 3.0521
1.3371 -0.27918 2.7283 3.0511
1.3433 -0.27799 2.7108 3.0381
1.3494 -0.27681 2.6933 3.0251
1.367 -0.278 2.6989 3.0382
1.3789 -0.278 2.6929 3.0382
1.4025 -0.28036 2.7098 3.064
1.4153 -0.28055 2.7054 3.0661
1.4271 -0.28055 2.6991 3.0661
1.4591 -0.28449 2.7307 3.1091
1.4777 -0.28577 2.7365 3.1231
1.4992 -0.2876 2.7475 3.1431
1.518 -0.28888 2.7531 3.1571
1.8223 -0.34406 3.271 3.7602
1.8366 -0.34406 3.263 3.7602
1.8509 -0.34407 3.255 3.7602
1.7248 -0.31817 3.0025 3.4772
1.655 -0.30298 2.8519 3.3112
1.6675 -0.30299 2.8447 3.3113
1.6799 -0.30299 2.8374 3.3113
1.6801 -0.30079 2.8095 3.2873
1.6883 -0.30006 2.7953 3.2793
1.6901 -0.29824 2.7709 3.2593
1.7023 -0.29824 2.7635 3.2594
1.702 -0.29608 2.7361 3.2358
1.7354 -0.29978 2.7627 3.2763
1.7475 -0.29979 2.7551 3.2763
1.7595 -0.29979 2.7474 3.2763
1.7591 -0.29768 2.7205 3.2533
1.7711 -0.29769 2.7128 3.2533
1.7829 -0.29769 2.705 3.2534
1.7997 -0.29851 2.7046 3.2624
1.8188 -0.29971 2.7075 3.2754
1.8307 -0.29971 2.6995 3.2754
1.8425 -0.29971 2.6915 3.2755
1.8328 -0.29623 2.6523 3.2375
1.8256 -0.29322 2.6173 3.2045
1.837 -0.29322 2.6093 3.2045
1.8485 -0.29322 2.6012 3.2045
1.8535 -0.29222 2.5842 3.1936
2.0405 -0.31975 2.8188 3.4945
1.8754 -0.29212 2.567 3.1925
1.8299 -0.28334 2.4818 3.0965
1.7897 -0.27547 2.4051 3.0105
1.7912 -0.2741 2.3853 2.9956
1.7897 -0.27227 2.3616 2.9756
1.7921 -0.27108 2.3434 2.9626
1.7915 -0.26944 2.3214 2.9446
1.7906 -0.26779 2.2994 2.9267
1.797 -0.26725 2.2869 2.9207
1.8045 -0.26688 2.2759 2.9167
1.803 -0.26519 2.2535 2.8982
1.8103 -0.26482 2.2425 2.8942
1.8223 -0.26514 2.2372 2.8976
1.8372 -0.26587 2.2354 2.9057
2.133 -0.30705 2.5723 3.3557
2.1443 -0.30705 2.5629 3.3557
2.1555 -0.30706 2.5535 3.3558
2.1525 -0.30505 2.5274 3.3338
2.1318 -0.30057 2.481 3.2848
2.142 -0.30048 2.4709 3.2838
2.1528 -0.30048 2.4615 3.2839
2.1695 -0.3013 2.4587 3.2928
2.1875 -0.30231 2.4574 3.3038
2.2002 -0.30258 2.45 3.3068
2.2123 -0.30276 2.4418 3.3088
2.223 -0.30277 2.4321 3.3089
2.2337 -0.30277 2.4224 3.3089
2.2443 -0.30277 2.4126 3.3089
2.2542 -0.30268 2.402 3.308
2.2517 -0.30095 2.3784 3.289
2.2477 -0.29903 2.3534 3.268
2.2583 -0.29907 2.3439 3.2685
2.2633 -0.29839 2.3286 3.261
2.2728 -0.29829 2.3179 3.26
2.2801 -0.29793 2.3051 3.256
2.2804 -0.29665 2.2853 3.242
2.289 -0.29647 2.2739 3.2401
2.2862 -0.29483 2.2513 3.2221
2.2875 -0.29373 2.2329 3.2101
2.2908 -0.29291 2.2167 3.2011
2.2955 -0.29227 2.2018 3.1942
2.299 -0.29149 2.1859 3.1856
2.302 -0.29067 2.1696 3.1767
2.3039 -0.28971 2.1524 3.1661
2.3096 -0.28925 2.1389 3.1612
2.319 -0.28926 2.1288 3.1612
2.3254 -0.28889 2.1159 3.1572
2.328 -0.28807 2.0998 3.1483
2.3321 -0.28744 2.085 3.1414
nan nan nan -inf
nan nan nan -inf
nan nan nan -inf
nan nan nan -inf
nan nan nan -inf
nan nan nan -inf
nan nan nan -inf
nan nan nan -inf
nan nan nan -inf
nan nan nan -inf
nan nan nan -inf
nan nan nan -inf
nan nan nan -inf
nan nan nan -inf
-2.6262 -0.31074 2.3912 3.5653
-2.6157 -0.31074 2.4027 3.5653
-2.6285 -0.31353 2.4358 3.5973
-2.6393 -0.3161 2.4674 3.6268
-2.6596 -0.31985 2.5083 3.6698
-2.6591 -0.32111 2.5299 3.6843
-2.6638 -0.32303 2.5567 3.7063
-2.6848 -0.32695 2.5995 3.7513
-2.6854 -0.32842 2.623 3.7682
-2.6931 -0.33078 2.6536 3.7952
-2.6871 -0.33147 2.671 3.8032
-2.7041 -0.33504 2.7116 3.8442
-2.7168 -0.33809 2.7483 3.8792
-2.7176 -0.3397 2.7733 3.8977
-2.7384 -0.34384 2.8191 3.9451
-2.7385 -0.34541 2.844 3.9632
-2.772 -0.35125 2.9042 4.0301
-2.762 -0.3516 2.9192 4.0341
-2.7942 -0.35735 2.9792 4.1001
-2.9473 -0.3787 3.1701 4.3451
-2.961 -0.38227 3.213 4.386
-2.9469 -0.38227 3.226 4.386
-2.9327 -0.38226 3.2388 4.386
-2.9085 -0.38096 3.2405 4.371
-2.8883 -0.38017 3.2465 4.362
-2.8609 -0.37843 3.2442 4.342
-2.8467 -0.37843 3.2567 4.342
-2.8311 -0.37825 3.2676 4.34
-2.8109 -0.37747 3.2732 4.3309
-2.7887 -0.37642 3.2763 4.3189
-2.7615 -0.37467 3.2733 4.2989
-2.7452 -0.37441 3.283 4.2959
-2.7289 -0.37415 3.2927 4.2928
-2.7131 -0.37397 3.303 4.2908
-2.688 -0.37249 3.3018 4.2738
-2.6669 -0.37157 3.3054 4.2633
-2.644 -0.3704 3.3065 4.2499
-2.6246 -0.3697 3.3118 4.2418
-2.6075 -0.36935 3.3201 4.2378
-2.5924 -0.36926 3.3307 4.2368
-2.5686 -0.36795 3.3302 4.2218
-2.5503 -0.36743 3.3366 4.2157
-2.5243 -0.36577 3.3327 4.1967
-2.5096 -0.36577 3.3437 4.1967
-2.4943 -0.36568 3.3538 4.1957
-2.4784 -0.3655 3.3631 4.1936
-2.4637 -0.3655 3.3739 4.1936
-2.4369 -0.36372 3.3681 4.1732
-2.416 -0.3628 3.3703 4.1626
-2.399 -0.36245 3.3776 4.1587
-2.3841 -0.36245 3.3881 4.1587
-2.3624 -0.3614 3.3886 4.1466
-2.347 -0.36131 3.3981 4.1456
-2.3298 -0.36096 3.4051 4.1416
-2.3138 -0.36079 3.4136 4.1396
-2.2904 -0.35948 3.4112 4.1246
-2.2705 -0.35869 3.4138 4.1155
-2.2533 -0.35834 3.4203 4.1115
-2.2356 -0.3579 3.426 4.1065
-2.2162 -0.35721 3.429 4.0985
-2.199 -0.35686 3.4353 4.0944
-2.177 -0.35572 3.434 4.0814
-2.1619 -0.35572 3.4435 4.0814
-2.1413 -0.35481 3.444 4.071
-2.1218 -0.35407 3.4462 4.0625
-2.1057 -0.3539 3.4538 4.0605
-2.0905 -0.35389 3.4629 4.0605
-2.0733 -0.35354 3.4686 4.0564
-2.055 -0.35302 3.4725 4.0504
-2.0377 -0.35267 3.478 4.0464
-2.0185 -0.35197 3.48 4.0384
-2.0002 -0.35144 3.4836 4.0324
-1.9849 -0.35144 3.4923 4.0324
-1.9652 -0.35066 3.4932 4.0233
-1.9475 -0.35022 3.4974 4.0183
-1.9321 -0.35022 3.5058 4.0183
-1.9139 -0.34969 3.509 4.0123
-1.8985 -0.34969 3.5173 4.0123
-1.8798 -0.34908 3.5195 4.0052
-1.8639 -0.34899 3.5268 4.0042
-1.8475 -0.34882 3.5331 4.0022
-1.8297 -0.34838 3.5367 3.9972
-1.8142 -0.34838 3.5447 3.9972
-1.7932 -0.34733 3.5419 3.9852
-1.7768 -0.34717 3.5481 3.9833
-1.7595 -0.34682 3.5523 3.9793
-1.7435 -0.34673 3.559 3.9783
-1.7274 -0.34664 3.5657 3.9772
-1.7118 -0.34664 3.5732 3.9772
-1.6961 -0.34664 3.5807 3.9772
-1.6779 -0.34611 3.5826 3.9712
-1.6551 -0.34463 3.5746 3.9542
-1.6385 -0.34445 3.58 3.9522
-1.6228 -0.34445 3.5871 3.9521
-1.6071 -0.34445 3.5941 3.9521
-1.5914 -0.34445 3.6011 3.9521
-1.5732 -0.34393 3.6026 3.9461
-1.5534 -0.34305 3.6003 3.9361
-1.5376 -0.34305 3.607 3.9361
-1.5218 -0.34305 3.6137 3.9361
-1.5067 -0.34322 3.6222 3.938
-1.4908 -0.34322 3.6287 3.938
-1.4749 -0.34322 3.6352 3.938
-1.4523 -0.34165 3.625 3.92
-1.4364 -0.34165 3.6313 3.92
-1.4205 -0.34165 3.6375 3.92
-1.4049 -0.34173 3.6446 3.921
-1.3889 -0.34173 3.6507 3.9209
-1.3729 -0.34173 3.6568 3.9209
-1.3534 -0.34086 3.6534 3.9109
-1.3364 -0.34061 3.6566 3.9081
-1.3201 -0.34052 3.6615 3.9071
-1.304 -0.34052 3.6672 3.907
-1.2896 -0.34096 3.6776 3.912
-1.2735 -0.34096 3.6832 3.912
-1.2557 -0.34052 3.684 3.907
-1.2389 -0.34034 3.6876 3.905
-1.2221 -0.34017 3.6911 3.903
-1.2044 -0.33973 3.6916 3.898
-1.1897 -0.34017 3.7016 3.903
-1.1741 -0.34034 3.7087 3.905
-1.1578 -0.34034 3.7138 3.9049
-1.1416 -0.34034 3.7188 3.9049
-1.1253 -0.34034 3.7238 3.9049
-1.1081 -0.34007 3.7258 3.9019
-1.0918 -0.34007 3.7306 3.9019
-1.0754 -0.34007 3.7353 3.9019
-1.059 -0.34007 3.74 3.9019
-1.0426 -0.34007 3.7446 3.9019
-1.0262 -0.34007 3.7491 3.9019
-1.0098 -0.34007 3.7536 3.9019
-0.99333 -0.34007 3.7579 3.9018
-0.97686 -0.34007 3.7622 3.9018
-0.96037 -0.34007 3.7665 3.9018
-0.94435 -0.34024 3.7726 3.9038
-0.92734 -0.34007 3.7747 3.9018
-0.90963 -0.33963 3.7739 3.8968
-0.89309 -0.33963 3.7778 3.8968
-0.87743 -0.33998 3.7856 3.9008
-0.86084 -0.33998 3.7894 3.9008
-0.84423 -0.33997 3.7931 3.9008
-0.82761 -0.33997 3.7968 3.9008
-0.81055 -0.3398 3.7984 3.8988
-0.7939 -0.3398 3.8019 3.8987
-0.77724 -0.3398 3.8053 3.8987
-0.76154 -0.34023 3.8136 3.9037
-0.74502 -0.34032 3.8179 3.9047
-0.72885 -0.34058 3.824 3.9077
-0.71228 -0.34067 3.8281 3.9087
-0.69532 -0.34058 3.8302 3.9077
-0.67871 -0.34067 3.8342 3.9087
-0.66293 -0.34119 3.843 3.9147
-0.64642 -0.34136 3.8479 3.9167
-0.6302 -0.34171 3.8546 3.9207
-0.61331 -0.34171 3.8573 3.9207
-0.59641 -0.34171 3.8599 3.9207
-0.58009 -0.34206 3.8665 3.9247
-0.56358 -0.34232 3.8719 3.9277
-0.54661 -0.34232 3.8743 3.9277
-0.53004 -0.34258 3.8796 3.9306
-0.51356 -0.34293 3.8859 3.9346
-0.49555 -0.34224 3.8804 3.9268
-0.47855 -0.34224 3.8825 3.9268
-0.46224 -0.34277 3.8905 3.9328
-0.4452 -0.34277 3.8925 3.9328
-0.42815 -0.34277 3.8944 3.9328
-0.41108 -0.34277 3.8962 3.9328
-0.3944 -0.3431 3.9017 3.9366
-0.3773 -0.3431 3.9034 3.9366
-0.36113 -0.34399 3.9151 3.9468
-0.34398 -0.34398 3.9167 3.9468
-0.32682 -0.34398 3.9182 3.9468
-0.31029 -0.34468 3.9275 3.9548
-0.29314 -0.34475 3.9296 3.9556
-0.27593 -0.34475 3.9309 3.9556
-0.25931 -0.34555 3.9412 3.9648
-0.24253 -0.34625 3.9502 3.9728
-0.22523 -0.34625 3.9512 3.9728
-0.20808 -0.34651 3.9552 3.9758
-0.19099 -0.34695 3.961 3.9808
-0.17376 -0.34719 3.9646 3.9836
-0.15671 -0.34789 3.9733 3.9916
-0.13944 -0.34824 3.9779 3.9956
-0.12223 -0.34885 3.9855 4.0026
-0.10478 -0.34885 3.986 4.0026
-0.087316 -0.34885 3.9864 4.0026
-0.069963 -0.34939 3.9929 4.0088
-0.052602 -0.35024 4.0029 4.0186
-0.035078 -0.35033 4.0041 4.0196
-0.017544 -0.35042 4.0052 4.0206
0 -0.35068 4.0083 4.0236
0.01756 -0.35076 4.0092 4.0246
0.035164 -0.3512 4.0141 4.0296
0.052826 -0.35174 4.02 4.0358
0.070622 -0.35268 4.0306 4.0466
0.088475 -0.35348 4.0393 4.0558
0.10617 -0.35348 4.0389 4.0558
0.12395 -0.35374 4.0414 4.0588
0.14179 -0.35409 4.0448 4.0628
0.15957 -0.35425 4.046 4.0646
0.17791 -0.35549 4.0593 4.0788
0.19607 -0.35617 4.0663 4.0866
0.21394 -0.35627 4.0666 4.0878
0.23202 -0.35669 4.0704 4.0926
0.25021 -0.35722 4.0753 4.0986
0.26839 -0.35765 4.0792 4.1036
0.28653 -0.358 4.0819 4.1076
0.30471 -0.35836 4.0848 4.1118
0.32315 -0.35898 4.0904 4.1188
0.34173 -0.35967 4.0968 4.1268
0.35976 -0.35976 4.0963 4.1278
0.37852 -0.36054 4.1036 4.1368
0.39678 -0.36081 4.1049 4.1398
0.41555 -0.3615 4.1111 4.1478
0.43397 -0.36185 4.1132 4.1518
0.45286 -0.36255 4.1191 4.1598
0.47089 -0.36255 4.1171 4.1598
0.49045 -0.36368 4.1279 4.1728
0.51094 -0.36541 4.1453 4.1926
0.52935 -0.36559 4.145 4.1946
0.54763 -0.36567 4.1436 4.1956
0.56726 -0.36663 4.1521 4.2066
0.58739 -0.36785 4.1634 4.2207
0.60562 -0.36786 4.1608 4.2207
0.62472 -0.36838 4.164 4.2267
0.64463 -0.36934 4.172 4.2377
0.66415 -0.37004 4.1771 4.2457
0.68437 -0.37108 4.1859 4.2577
0.70451 -0.37204 4.1937 4.2687
0.72389 -0.37256 4.1964 4.2747
0.74331 -0.37309 4.1991 4.2807
0.7624 -0.37344 4.1998 4.2847
0.78316 -0.37457 4.2091 4.2977
0.80364 -0.37553 4.2164 4.3087
0.8221 -0.37553 4.2129 4.3087
0.84075 -0.37562 4.2102 4.3097
0.85563 -0.37407 4.1891 4.2919
0.87739 -0.37553 4.2017 4.3087
0.89329 -0.37449 4.1861 4.2967
0.90823 -0.37309 4.1666 4.2808
0.91478 -0.36839 4.1101 4.2268
0.92903 -0.36691 4.0896 4.2098
0.93681 -0.36298 4.0418 4.1648
0.94625 -0.35985 4.0028 4.1288
0.95631 -0.35706 3.9676 4.0968
0.96417 -0.35357 3.9247 4.0568
0.97362 -0.35079 3.8895 4.0248
0.97957 -0.34686 3.8418 3.9798
0.98512 -0.34294 3.7941 3.9348
0.98722 -0.33798 3.7348 3.8778
1.0028 -0.33772 3.7276 3.8749
1.0102 -0.33475 3.6905 3.8409
1.0194 -0.33249 3.6611 3.8149
1.024 -0.32883 3.6163 3.7729
1.0269 -0.32473 3.5668 3.7259
1.0344 -0.32221 3.5346 3.6969
1.0425 -0.31994 3.5052 3.6709
1.044 -0.31576 3.4548 3.6229
1.029 -0.30678 3.3522 3.5199
1.0437 -0.30678 3.3476 3.5199
1.0583 -0.30678 3.343 3.52
1.0748 -0.30731 3.3441 3.526
1.0925 -0.30818 3.3488 3.536
1.1119 -0.30949 3.3582 3.551
1.1323 -0.31106 3.3703 3.569
1.1487 -0.3115 3.37 3.574
1.1725 -0.31394 3.3913 3.602
1.189 -0.31437 3.3909 3.607
1.2039 -0.31438 3.3857 3.607
1.2197 -0.31464 3.3832 3.6101
1.2352 -0.31481 3.3797 3.6121
1.251 -0.31506 3.3769 3.6149
1.2605 -0.31376 3.3574 3.5999
1.2359 -0.30408 3.2485 3.4889
1.215 -0.29554 3.152 3.391
1.2176 -0.29284 3.1179 3.36
1.21 -0.28779 3.0588 3.302
1.2156 -0.28596 3.0341 3.281
1.2128 -0.28221 2.989 3.238
1.2251 -0.28204 2.9819 3.236
1.224 -0.27882 2.9425 3.199
1.2349 -0.27838 2.9325 3.1941
1.2439 -0.27751 2.9179 3.1841
1.2523 -0.27655 2.9024 3.1731
1.2598 -0.27542 2.885 3.1601
1.2648 -0.27377 2.8622 3.1411
1.2769 -0.27368 2.8557 3.1401
1.28 -0.27168 2.8292 3.1171
1.2857 -0.27028 2.8091 3.1012
1.2968 -0.27002 2.8007 3.0982
1.3006 -0.26828 2.777 3.0782
1.3046 -0.26663 2.7542 3.0592
1.312 -0.26567 2.7386 3.0482
1.3235 -0.26559 2.7319 3.0472
1.328 -0.2641 2.7109 3.0303
1.3394 -0.26402 2.7042 3.0293
1.3513 -0.26402 2.6983 3.0293
1.3636 -0.26411 2.6933 3.0303
1.3767 -0.26437 2.69 3.0333
1.3921 -0.26506 2.6909 3.0412
1.4223 -0.26855 2.7201 3.0812
1.437 -0.26907 2.7191 3.0872
1.4513 -0.26951 2.7172 3.0922
1.4632 -0.26951 2.7108 3.0923
1.4779 -0.27003 2.7097 3.0983
1.5013 -0.27213 2.7241 3.1223
1.7328 -0.31161 3.1118 3.5753
1.7464 -0.31161 3.1042 3.5753
1.76 -0.31161 3.0965 3.5754
1.6847 -0.29601 2.9342 3.3964
1.6546 -0.28852 2.8527 3.3104
1.6671 -0.28852 2.8454 3.3104
1.6795 -0.28852 2.8381 3.3104
1.692 -0.28852 2.8307 3.3104
1.7044 -0.28853 2.8233 3.3105
1.6872 -0.28356 2.7674 3.2535
1.6993 -0.28356 2.76 3.2535
1.7061 -0.28269 2.744 3.2435
1.7138 -0.28199 2.7297 3.2355
1.7263 -0.28207 2.723 3.2364
1.7382 -0.28208 2.7154 3.2364
1.742 -0.28077 2.6953 3.2215
1.7483 -0.2799 2.6793 3.2115
1.7535 -0.27886 2.6616 3.1995
1.7652 -0.27886 2.654 3.1995
1.7768 -0.27886 2.6462 3.1996
1.7895 -0.27904 2.6401 3.2016
1.801 -0.27904 2.6322 3.2016
1.8126 -0.27904 2.6243 3.2016
1.8092 -0.27678 2.5951 3.1756
1.812 -0.27547 2.575 3.1607
1.8233 -0.27547 2.567 3.1607
1.8322 -0.27513 2.5558 3.1567
1.8465 -0.2756 2.5522 3.1622
1.8466 -0.27395 2.5288 3.1432
1.836 -0.27076 2.4914 3.1066
1.8047 -0.26458 2.4266 3.0357
1.7603 -0.25656 2.3454 2.9437
1.7706 -0.25656 2.3376 2.9437
1.7802 -0.25648 2.3291 2.9427
1.7807 -0.25508 2.3087 2.9268
1.7896 -0.25491 2.2993 2.9248
1.7972 -0.25457 2.2883 2.9208
1.793 -0.25256 2.2625 2.8978
1.8029 -0.25257 2.2546 2.8979
1.8103 -0.25222 2.2436 2.8939
1.8204 -0.25226 2.236 2.8943
1.8343 -0.25283 2.2331 2.9009
2.1326 -0.29239 2.5732 3.3548
2.1522 -0.29353 2.5738 3.3679
2.1634 -0.29353 2.5644 3.3679
2.1663 -0.2924 2.545 3.3549
2.1346 -0.28665 2.4857 3.2889
2.1455 -0.28665 2.4763 3.289
2.1563 -0.28665 2.4669 3.289
2.1803 -0.2884 2.4724 3.309
2.1931 -0.28866 2.4651 3.312
2.2062 -0.28897 2.458 3.3155
2.2183 -0.28914 2.4498 3.3175
2.2293 -0.28918 2.4404 3.318
2.24 -0.28919 2.4307 3.318
2.2479 -0.28884 2.4179 3.3141
2.2456 -0.28719 2.3943 3.2951
2.2485 -0.28623 2.3765 3.2841
2.2589 -0.28623 2.3666 3.2841
2.2679 -0.28606 2.3553 3.2822
2.2782 -0.28606 2.3454 3.2822
2.2717 -0.28397 2.3183 3.2582
2.277 -0.28336 2.3033 3.2512
2.2786 -0.28231 2.2849 3.2392
2.2808 -0.28136 2.2672 3.2282
2.2808 -0.28014 2.2474 3.2142
2.2871 -0.2797 2.2339 3.2092
2.2883 -0.27866 2.2156 3.1973
2.2915 -0.27788 2.1993 3.1883
2.2997 -0.27771 2.1879 3.1863
2.3042 -0.2771 2.1731 3.1794
2.3089 -0.27653 2.1585 3.1728
2.3089 -0.2754 2.1396 3.1599
2.3157 -0.27509 2.1271 3.1563
2.3206 -0.27457 2.1129 3.1504
2.3232 -0.27379 2.0967 3.1414
2.3323 -0.27379 2.0866 3.1414
nan nan nan -inf
nan nan nan -inf
nan nan nan -inf
nan nan nan -inf
nan nan nan -inf
nan nan nan -inf
nan nan nan -inf
nan nan nan -inf
nan nan nan -inf
nan nan nan -inf
nan nan nan -inf
nan nan nan -inf
nan nan nan -inf
nan nan nan -inf
-2.6538 -0.29831 2.4179 3.6025
-2.6436 -0.29836 2.4298 3.603
-2.6435 -0.29956 2.4512 3.6175
-2.6473 -0.30122 2.4764 3.6375
-2.6444 -0.30212 2.4954 3.6485
-2.6537 -0.30444 2.5262 3.6765
-2.6699 -0.30759 2.564 3.7144
-2.6686 -0.30874 2.5854 3.7284
-2.6872 -0.31222 2.6263 3.7704
-2.6763 -0.3123 2.6387 3.7713
-2.7044 -0.31694 2.6898 3.8274
-2.7084 -0.3188 2.7174 3.8498
-2.7066 -0.32 2.7396 3.8644
-2.7315 -0.32439 2.7891 3.9173
-2.7248 -0.32505 2.8067 3.9253
-2.7298 -0.32712 2.8366 3.9503
-2.751 -0.33117 2.8838 3.9993
-2.7678 -0.33473 2.9269 4.0422
-2.8149 -0.34201 3.003 4.1302
-2.9543 -0.36064 3.1795 4.3552
-2.9559 -0.36255 3.2093 4.3782
-2.9418 -0.36255 3.2222 4.3782
-2.9277 -0.36255 3.235 4.3782
-2.9042 -0.36139 3.2375 4.3642
-2.886 -0.36089 3.2457 4.3582
-2.8652 -0.36006 3.2508 4.3481
-2.8437 -0.35915 3.255 4.3371
-2.8242 -0.35848 3.2614 4.3291
-2.8092 -0.3584 3.2729 4.3281
-2.7735 -0.35566 3.2601 4.295
-2.7592 -0.35566 3.2722 4.295
-2.7429 -0.35541 3.282 4.292
-2.7273 -0.35525 3.2924 4.29
-2.7052 -0.35425 3.2951 4.278
-2.6795 -0.35277 3.293 4.26
-2.6631 -0.35252 3.3024 4.257
-2.6455 -0.3521 3.3101 4.252
-2.6297 -0.35193 3.3201 4.25
-2.6016 -0.35011 3.3143 4.2279
-2.5858 -0.34994 3.3241 4.2259
-2.5664 -0.34928 3.329 4.2179
-2.55 -0.34903 3.3378 4.2149
-2.5353 -0.34902 3.3489 4.2148
-2.514 -0.34811 3.3512 4.2038
-2.4993 -0.34811 3.3622 4.2038
-2.4713 -0.34625 3.3551 4.1813
-2.4513 -0.3455 3.3586 4.1723
-2.4305 -0.34464 3.3608 4.1619
-2.4151 -0.34455 3.3706 4.1608
-2.3974 -0.34414 3.3771 4.1558
-2.3803 -0.3438 3.3843 4.1518
-2.3632 -0.34347 3.3914 4.1478
-2.3398 -0.34223 3.3894 4.1328
-2.3244 -0.34214 3.3987 4.1317
-2.3095 -0.34214 3.4089 4.1317
-2.289 -0.34131 3.4107 4.1217
-2.2712 -0.34089 3.4165 4.1167
-2.2524 -0.34031 3.4205 4.1097
-2.2325 -0.33957 3.4228 4.1006
-2.2148 -0.33915 3.4284 4.0956
-2.1987 -0.33898 3.4363 4.0936
-2.182 -0.33873 3.4434 4.0906
-2.1624 -0.33803 3.4458 4.0821
-2.1455 -0.33775 3.4523 4.0787
-2.1241 -0.33675 3.4515 4.0667
-2.1053 -0.33617 3.4548 4.0596
-2.0886 -0.33592 3.4614 4.0566
-2.0734 -0.33592 3.4705 4.0566
-2.0556 -0.3355 3.4752 4.0516
-2.0404 -0.3355 3.4842 4.0516
-2.0221 -0.335 3.4879 4.0455
-2.0014 -0.33409 3.4872 4.0345
-1.9811 -0.33326 3.4872 4.0245
-1.9659 -0.33326 3.4958 4.0245
-1.9481 -0.33285 3.5 4.0195
-1.9327 -0.33284 3.5085 4.0195
-1.9174 -0.33284 3.5169 4.0194
-1.9019 -0.33284 3.5253 4.0194
-1.8799 -0.33168 3.5212 4.0054
-1.8621 -0.33126 3.525 4.0004
-1.8402 -0.3301 3.5208 3.9864
-1.8248 -0.3301 3.5288 3.9863
-1.8093 -0.3301 3.5367 3.9863
-1.7938 -0.3301 3.5446 3.9863
-1.7725 -0.32903 3.5409 3.9735
-1.7623 -0.33003 3.5594 3.9854
-1.7467 -0.33003 3.567 3.9854
-1.7258 -0.32903 3.5639 3.9734
-1.705 -0.32804 3.5606 3.9614
-1.6894 -0.32803 3.568 3.9614
-1.6725 -0.32778 3.5727 3.9584
-1.6547 -0.32737 3.5754 3.9533
-1.6391 -0.32737 3.5826 3.9533
-1.6197 -0.32662 3.5816 3.9443
-1.6031 -0.32645 3.5868 3.9423
-1.5874 -0.32645 3.5938 3.9423
-1.5717 -0.32645 3.6007 3.9423
-1.5539 -0.32604 3.6029 3.9373
-1.5381 -0.32604 3.6097 3.9372
-1.5223 -0.32603 3.6164 3.9372
-1.5011 -0.32487 3.6101 3.9232
-1.4853 -0.32487 3.6166 3.9232
-1.4694 -0.32487 3.6231 3.9232
-1.4535 -0.32487 3.6295 3.9232
-1.4376 -0.32487 3.6358 3.9232
-1.4188 -0.32421 3.6346 3.9151
-1.4028 -0.3242 3.6408 3.9151
-1.3855 -0.32387 3.6431 3.9111
-1.3695 -0.32387 3.6492 3.9111
-1.3525 -0.32362 3.6523 3.9081
-1.3375 -0.32387 3.661 3.9111
-1.3201 -0.32354 3.663 3.9071
-1.304 -0.32354 3.6688 3.907
-1.2879 -0.32354 3.6744 3.907
-1.2725 -0.32371 3.6821 3.9092
-1.2557 -0.32353 3.6855 3.907
-1.2396 -0.32355 3.6912 3.9072
-1.2234 -0.32355 3.6965 3.9072
-1.2072 -0.32354 3.7019 3.9072
-1.1916 -0.32371 3.709 3.9091
-1.1754 -0.32371 3.7142 3.9091
-1.1588 -0.32362 3.7183 3.9081
-1.1416 -0.32337 3.7205 3.9051
-1.1253 -0.32337 3.7254 3.9051
-1.1087 -0.32329 3.7294 3.9041
-1.0907 -0.32279 3.7284 3.8981
-1.0724 -0.32221 3.7265 3.8911
-1.0561 -0.32221 3.7311 3.8911
-1.0397 -0.32221 3.7357 3.891
-1.0247 -0.32262 3.745 3.896
-1.0091 -0.32287 3.7523 3.899
-0.99262 -0.32287 3.7567 3.899
-0.97616 -0.32287 3.761 3.899
-0.95894 -0.32262 3.7623 3.896
-0.94246 -0.32262 3.7665 3.896
-0.92596 -0.32262 3.7706 3.896
-0.90991 -0.32278 3.7765 3.898
-0.89336 -0.32278 3.7805 3.898
-0.8768 -0.32278 3.7843 3.898
-0.85934 -0.32245 3.7842 3.894
-0.84233 -0.32228 3.786 3.8919
-0.82574 -0.32228 3.7896 3.8919
-0.80955 -0.32245 3.7952 3.8939
-0.79476 -0.32319 3.8075 3.9029
-0.77808 -0.32319 3.8109 3.9029
-0.76139 -0.32319 3.8143 3.9029
-0.74468 -0.32319 3.8175 3.9029
-0.72851 -0.32344 3.8237 3.9059
-0.71359 -0.32427 3.8366 3.9159
-0.69678 -0.32427 3.8397 3.9159
-0.67996 -0.32427 3.8427 3.9159
-0.66177 -0.3236 3.8378 3.9079
-0.64496 -0.3236 3.8407 3.9079
-0.62814 -0.3236 3.8434 3.9079
-0.61412 -0.32509 3.8639 3.9258
-0.5972 -0.32509 3.8665 3.9258
-0.58026 -0.32509 3.8691 3.9258
-0.56202 -0.32435 3.8627 3.9168
-0.54511 -0.32435 3.8651 3.9168
-0.52818 -0.32435 3.8675 3.9168
-0.51254 -0.32517 3.8796 3.9268
-0.49555 -0.32517 3.8818 3.9268
-0.47928 -0.32567 3.8899 3.9328
-0.46224 -0.32567 3.8919 3.9328
-0.4452 -0.32567 3.8939 3.9328
-0.42815 -0.32567 3.8958 3.9328
-0.41223 -0.32658 3.9086 3.9438
-0.39542 -0.32683 3.9133 3.9468
-0.37828 -0.32683 3.915 3.9468
-0.36113 -0.32683 3.9166 3.9468
-0.34398 -0.32683 3.9182 3.9468
-0.32749 -0.32749 3.9276 3.9548
-0.31036 -0.32757 3.93 3.9558
-0.29345 -0.3279 3.9352 3.9598
-0.27657 -0.32832 3.9415 3.9648
-0.25983 -0.32898 3.9506 3.9728
-0.24253 -0.32898 3.9517 3.9728
-0.2254 -0.32923 3.9557 3.9758
-0.20834 -0.32964 3.9616 3.9808
-0.19171 -0.33088 3.9774 3.9958
-0.17482 -0.33188 3.9902 4.0078
-0.15738 -0.33196 3.9919 4.0088
-0.1399 -0.33196 3.9925 4.0088
-0.12239 -0.33187 3.9921 4.0078
-0.10491 -0.33187 3.9926 4.0078
-0.087451 -0.33196 3.994 4.0088
-0.070137 -0.33279 4.0043 4.0188
-0.052722 -0.33353 4.0136 4.0278
-0.035167 -0.3337 4.0158 4.0298
-0.017588 -0.33378 4.0169 4.0307
0 -0.33378 4.0169 4.0307
0.017605 -0.33411 4.0209 4.0347
0.035218 -0.33419 4.0217 4.0358
0.05297 -0.3351 4.0325 4.0468
0.070782 -0.33585 4.0412 4.0558
0.088475 -0.33585 4.0409 4.0558
0.10625 -0.3361 4.0434 4.0588
0.12407 -0.33643 4.0469 4.0628
0.142 -0.33693 4.0523 4.0688
0.16013 -0.33775 4.0616 4.0788
0.17831 -0.3385 4.0698 4.0878
0.19612 -0.3385 4.069 4.0878
0.2143 -0.33908 4.0751 4.0948
0.23254 -0.33966 4.0811 4.1018
0.25053 -0.33983 4.082 4.1038
0.26886 -0.34041 4.0878 4.1108
0.28682 -0.34049 4.0876 4.1118
0.30523 -0.34107 4.0933 4.1188
0.32378 -0.34173 4.0998 4.1268
0.34181 -0.34181 4.0994 4.1278
0.36054 -0.34256 4.1068 4.1368
0.37879 -0.34281 4.1081 4.1398
0.39754 -0.34347 4.1144 4.1478
0.41595 -0.3438 4.1166 4.1518
0.43481 -0.34447 4.1226 4.1598
0.45286 -0.34447 4.1207 4.1598
0.47237 -0.34554 4.1316 4.1728
0.49128 -0.34612 4.1364 4.1798
0.51084 -0.34712 4.1461 4.1918
0.53013 -0.34786 4.1527 4.2008
0.54974 -0.34877 4.1612 4.2118
0.56836 -0.34902 4.1617 4.2148
0.58727 -0.34944 4.1641 4.2198
0.60651 -0.35002 4.1684 4.2268
0.62608 -0.35076 4.1746 4.2358
0.64618 -0.35176 4.1837 4.2478
0.66496 -0.35201 4.1837 4.2509
0.68376 -0.35225 4.1837 4.2539
0.70289 -0.35267 4.1856 4.2589
0.72308 -0.35358 4.1933 4.2699
0.7416 -0.35366 4.1911 4.2709
0.7644 -0.35573 4.2123 4.2959
0.78283 -0.35574 4.209 4.2959
0.80181 -0.35598 4.2084 4.2989
0.82062 -0.35615 4.2068 4.3009
0.83864 -0.35599 4.2013 4.2989
0.85563 -0.35541 4.1907 4.2919
0.87194 -0.35458 4.1772 4.2819
0.89022 -0.35458 4.1733 4.2819
0.90275 -0.35234 4.1431 4.2549
0.91591 -0.35044 4.1167 4.2319
0.92753 -0.34804 4.0845 4.2029
0.93506 -0.34423 4.0358 4.157
0.94286 -0.34067 3.9899 4.114
0.95146 -0.33752 3.949 4.076
0.96755 -0.33711 3.9399 4.071
0.97004 -0.33206 3.8767 4.01
0.97937 -0.32949 3.8425 3.979
0.98392 -0.32544 3.7909 3.93
0.99008 -0.32204 3.7471 3.889
0.99845 -0.31948 3.7129 3.858
1.0084 -0.31749 3.6854 3.834
1.0176 -0.31534 3.656 3.808
1.029 -0.31393 3.6352 3.7911
1.0283 -0.30896 3.5732 3.7311
1.0333 -0.30582 3.5324 3.6931
1.0454 -0.30482 3.5163 3.6811
1.0328 -0.29679 3.4192 3.5841
1.0335 -0.29274 3.368 3.5351
1.0482 -0.29274 3.3634 3.5351
1.0629 -0.29274 3.3588 3.5351
1.0782 -0.2929 3.356 3.5371
1.0951 -0.29348 3.3579 3.5441
1.1129 -0.29431 3.3626 3.5542
1.1349 -0.29622 3.3794 3.5772
1.1523 -0.29688 3.382 3.5852
1.1684 -0.29721 3.3807 3.5892
1.1848 -0.29763 3.3802 3.5942
1.1996 -0.29763 3.375 3.5942
1.2197 -0.29894 3.3846 3.6101
1.2352 -0.29911 3.3811 3.6121
1.25 -0.29911 3.3757 3.6121
1.2648 -0.29911 3.3702 3.6121
1.2416 -0.29025 3.2649 3.5051
1.209 -0.27941 3.1377 3.3741
1.1995 -0.27411 3.0729 3.3101
1.2086 -0.27311 3.0566 3.2982
1.2164 -0.27187 3.0374 3.2832
1.2278 -0.27146 3.0274 3.2782
1.2282 -0.26865 2.9907 3.2442
1.2275 -0.26567 2.9522 3.2082
1.2366 -0.26484 2.9376 3.1982
1.2432 -0.26352 2.9175 3.1822
1.2488 -0.26203 2.8956 3.1642
1.2599 -0.2617 2.8864 3.1603
1.2564 -0.25838 2.8444 3.1203
1.2685 -0.2583 2.838 3.1193
1.2805 -0.25822 2.8315 3.1183
1.2891 -0.25748 2.8177 3.1093
1.3002 -0.25723 2.8094 3.1063
1.3028 -0.25533 2.7829 3.0834
1.303 -0.25301 2.752 3.0554
1.3116 -0.25235 2.7391 3.0474
1.3219 -0.25202 2.7297 3.0434
1.3325 -0.25177 2.7212 3.0404
1.3418 -0.25128 2.71 3.0344
1.3514 -0.25086 2.6997 3.0294
1.3655 -0.25128 2.6982 3.0345
1.3773 -0.25128 2.6922 3.0345
1.4027 -0.25375 2.7126 3.0643
1.422 -0.25508 2.7206 3.0804
1.4395 -0.25607 2.7249 3.0924
1.4547 -0.25666 2.7248 3.0994
1.4775 -0.25856 2.7386 3.1224
1.4928 -0.25914 2.7382 3.1294
1.5101 -0.26005 2.7413 3.1404
1.635 -0.27935 2.9375 3.3735
1.6479 -0.27935 2.9303 3.3735
1.6607 -0.27935 2.9231 3.3735
1.6482 -0.27513 2.8718 3.3225
1.6512 -0.27356 2.8481 3.3035
1.6637 -0.27356 2.8409 3.3036
1.6761 -0.27356 2.8336 3.3036
1.6885 -0.27356 2.8263 3.3036
1.7009 -0.27357 2.8189 3.3036
1.6889 -0.26968 2.7714 3.2566
1.701 -0.26968 2.764 3.2567
1.7047 -0.26835 2.743 3.2407
1.7056 -0.26662 2.7178 3.2197
1.7214 -0.26723 2.7166 3.2271
1.7373 -0.26785 2.7153 3.2346
1.7335 -0.26545 2.6834 3.2056
1.7447 -0.26537 2.6749 3.2046
1.7564 -0.26537 2.6673 3.2046
1.7686 -0.26546 2.6604 3.2057
1.783 -0.26587 2.6568 3.2107
1.7947 -0.26587 2.649 3.2107
1.8063 -0.26588 2.6411 3.2107
1.8031 -0.26372 2.6119 3.1848
1.8117 -0.26331 2.5999 3.1798
1.8219 -0.26315 2.5903 3.1778
1.8252 -0.26199 2.571 3.1638
1.8329 -0.2615 2.5581 3.1578
1.8412 -0.26108 2.546 3.1529
1.833 -0.25835 2.5114 3.1199
1.8002 -0.25222 2.4439 3.0458
1.8014 -0.2509 2.4233 3.0299
1.7689 -0.24493 2.3579 2.9578
1.778 -0.24477 2.3486 2.9558
1.7871 -0.2446 2.3392 2.9539
1.7955 -0.24436 2.329 2.9509
1.7959 -0.24304 2.3086 2.9349
1.8041 -0.24279 2.2983 2.9319
1.7987 -0.24072 2.2709 2.907
1.8087 -0.24072 2.263 2.907
1.8186 -0.24072 2.2551 2.907
1.8285 -0.24073 2.2472 2.907
1.8389 -0.24081 2.2399 2.9081
2.1373 -0.2784 2.5802 3.362
2.1496 -0.27853 2.572 3.3635
2.1598 -0.2784 2.5614 3.362
2.1652 -0.27766 2.5451 3.353
2.1478 -0.27402 2.5024 3.3091
2.1587 -0.27402 2.493 3.3091
2.1696 -0.27402 2.4835 3.3091
2.1805 -0.27402 2.474 3.3091
2.1953 -0.27452 2.4689 3.3152
2.2088 -0.27486 2.4623 3.3192
2.2222 -0.27519 2.4555 3.3232
2.2296 -0.27477 2.4421 3.3182
2.2403 -0.27477 2.4323 3.3182
2.2435 -0.27387 2.4145 3.3072
2.2567 -0.27419 2.4075 3.3112
2.2501 -0.27213 2.3795 3.2862
2.2592 -0.27196 2.3682 3.2843
2.2536 -0.27006 2.3418 3.2613
2.2625 -0.2699 2.3305 3.2593
2.2692 -0.26949 2.3171 3.2543
2.2724 -0.26866 2.3 3.2444
2.2768 -0.268 2.2844 3.2363
2.2793 -0.26713 2.267 3.2259
2.2864 -0.2668 2.2543 3.2219
2.2966 -0.26684 2.2446 3.2224
2.2928 -0.26527 2.2213 3.2034
2.299 -0.26486 2.2078 3.1984
2.3021 -0.26411 2.1916 3.1895
2.3059 -0.26345 2.176 3.1815
2.3045 -0.26221 2.1557 3.1665
2.3111 -0.26188 2.1429 3.1625
2.3167 -0.26147 2.1294 3.1575
2.3176 -0.26052 2.1115 3.146
2.3242 -0.26023 2.099 3.1425
2.3253 -0.25933 2.0816 3.1316
nan nan nan -inf
nan nan nan -inf
nan nan nan -inf
nan nan nan -inf
nan nan nan -inf
nan nan nan -inf
nan nan nan -inf
nan nan nan -inf
nan nan nan -inf
nan nan nan -inf
nan nan nan -inf
nan nan nan -inf
nan nan nan -inf
nan nan nan -inf
-2.6395 -0.2811 2.4062 3.5827
-2.6289 -0.2811 2.4177 3.5827
-2.6336 -0.28274 2.4434 3.6037
-2.6302 -0.28352 2.4617 3.6136
-2.6636 -0.28831 2.515 3.6746
-2.659 -0.28901 2.5328 3.6836
-2.6767 -0.29215 2.572 3.7236
-2.6775 -0.29348 2.5955 3.7406
-2.6954 -0.2967 2.6357 3.7815
-2.6919 -0.2976 2.6555 3.793
-2.6849 -0.29811 2.6719 3.7995
-2.721 -0.30344 2.7316 3.8675
-2.7167 -0.3043 2.7513 3.8785
-2.7262 -0.30673 2.7852 3.9095
-2.7202 -0.30744 2.8035 3.9184
-2.7342 -0.31042 2.8427 3.9564
-2.7527 -0.31394 2.8871 4.0014
-2.776 -0.31807 2.9372 4.0539
-2.8214 -0.32477 3.0115 4.1394
-2.9594 -0.34227 3.1867 4.3624
-2.9603 -0.344 3.2158 4.3844
-2.9462 -0.34399 3.2287 4.3844
-2.932 -0.34399 3.2415 4.3843
-2.9031 -0.34226 3.238 4.3623
-2.8856 -0.34187 3.2469 4.3573
-2.8674 -0.3414 3.255 4.3513
-2.8472 -0.34069 3.2607 4.3422
-2.829 -0.34022 3.2686 4.3362
-2.8094 -0.33959 3.2749 4.3282
-2.7841 -0.33826 3.2743 4.3112
-2.7646 -0.33763 3.2803 4.3032
-2.7467 -0.33719 3.2882 4.2977
-2.7212 -0.33582 3.2867 4.2802
-2.7004 -0.33504 3.2909 4.2702
-2.6835 -0.33472 3.2996 4.2662
-2.6615 -0.33378 3.302 4.2541
-2.6451 -0.33354 3.3112 4.2511
-2.6281 -0.33322 3.3196 4.2471
-2.6068 -0.33236 3.3224 4.2361
-2.5848 -0.33142 3.3244 4.2241
-2.5684 -0.33118 3.3333 4.221
-2.552 -0.33094 3.3421 4.218
-2.5331 -0.33039 3.3476 4.211
-2.5136 -0.32976 3.3523 4.203
-2.4909 -0.32871 3.3525 4.1895
-2.4777 -0.3289 3.3654 4.1921
-2.4518 -0.32741 3.3609 4.173
-2.4353 -0.32718 3.3691 4.17
-2.4118 -0.326 3.3676 4.155
-2.3971 -0.326 3.3781 4.155
-2.3817 -0.32591 3.3877 4.1539
-2.3657 -0.32576 3.3965 4.1519
-2.3423 -0.32458 3.3945 4.1369
-2.3212 -0.32371 3.3956 4.1259
-2.3018 -0.32308 3.3991 4.1179
-2.2808 -0.32222 3.4 4.1068
-2.2659 -0.32222 3.41 4.1068
-2.2487 -0.3219 3.4165 4.1028
-2.2332 -0.32182 3.4255 4.1018
-2.216 -0.32151 3.4318 4.0978
-2.1924 -0.32025 3.428 4.0817
-2.1776 -0.32029 3.4381 4.0823
-2.1629 -0.32034 3.448 4.0828
-2.1425 -0.31955 3.449 4.0728
-2.1211 -0.31861 3.4481 4.0608
-2.106 -0.31861 3.4574 4.0608
-2.0893 -0.31837 3.464 4.0578
-2.0695 -0.31766 3.4654 4.0488
-2.0543 -0.31766 3.4744 4.0487
-2.0385 -0.31758 3.4825 4.0477
-2.0203 -0.31711 3.4862 4.0417
-2.0025 -0.31671 3.4906 4.0367
-1.9798 -0.31554 3.4863 4.0217
-1.9626 -0.31522 3.4915 4.0176
-1.9468 -0.31514 3.4991 4.0166
-1.9314 -0.31514 3.5076 4.0166
-1.9108 -0.31427 3.5064 4.0056
-1.8935 -0.31396 3.5112 4.0016
-1.8781 -0.31396 3.5194 4.0016
-1.8618 -0.3138 3.5258 3.9995
-1.844 -0.31341 3.5295 3.9945
-1.8272 -0.31317 3.5349 3.9915
