# .PCD v.6 - Point Cloud Data file format
FIELDS x y z range
SIZE 4 4 4 4
TYPE F F F F
COUNT 1 1 1 1
WIDTH 1760
HEIGHT 1
POINTS 1760
DATA ascii
0.91879 -1.0505 2.5036 2.8664
0.93052 -1.0505 2.4993 2.8664
0.95108 -1.0604 2.5183 2.8933
0.96289 -1.0604 2.5139 2.8933
0.97669 -1.0626 2.5145 2.8993
0.99496 -1.0696 2.5264 2.9183
1.0348 -1.0993 2.5917 2.9994
1.2103 -1.2708 2.9905 3.4674
1.215 -1.2612 2.9623 3.4412
1.2446 -1.2774 2.9944 3.4853
1.2648 -1.2836 3.0031 3.5023
1.2796 -1.2844 2.9989 3.5044
1.2974 -1.288 3.0015 3.5144
1.3141 -1.2906 3.0013 3.5214
1.3289 -1.2914 2.9969 3.5235
1.3345 -1.2832 2.9718 3.5013
1.3484 -1.2833 2.9656 3.5014
1.3639 -1.2847 2.9626 3.5054
1.3798 -1.2866 2.9604 3.5104
1.3952 -1.2881 2.9573 3.5145
1.4103 -1.2892 2.9533 3.5175
1.4124 -1.2785 2.9223 3.4884
1.431 -1.2829 2.9257 3.5004
1.4459 -1.284 2.9215 3.5035
1.46 -1.2844 2.9155 3.5045
1.4788 -1.2888 2.9186 3.5165
1.4941 -1.2903 2.915 3.5206
1.4915 -1.2763 2.8765 3.4824
1.5166 -1.2862 2.8917 3.5095
1.531 -1.287 2.8862 3.5115
1.545 -1.2874 2.8799 3.5126
1.559 -1.2877 2.8734 3.5136
1.5729 -1.2881 2.8669 3.5146
1.5791 -1.2822 2.8464 3.4985
1.5933 -1.283 2.8407 3.5006
1.6108 -1.2863 2.8405 3.5096
1.6292 -1.2903 2.8418 3.5207
1.6385 -1.2872 2.8273 3.5121
1.6449 -1.2819 2.8079 3.4976
1.6624 -1.2852 2.8074 3.5067
1.6794 -1.2881 2.806 3.5147
1.6978 -1.2922 2.8069 3.5257
1.6988 -1.283 2.779 3.5006
1.7157 -1.2859 2.7773 3.5087
1.7327 -1.2889 2.7756 3.5167
1.7512 -1.2929 2.7761 3.5278
1.7436 -1.2779 2.7357 3.4867
1.764 -1.2834 2.7392 3.5017
1.7774 -1.2838 2.7317 3.5028
1.7958 -1.2878 2.7319 3.5138
1.805 -1.2852 2.718 3.5067
1.8177 -1.2852 2.7096 3.5068
1.8304 -1.2853 2.701 3.5068
1.8468 -1.2878 2.6978 3.5139
1.8451 -1.2779 2.6684 3.4868
1.8661 -1.2838 2.672 3.5029
1.8808 -1.2853 2.6663 3.5069
1.8871 -1.2811 2.6487 3.4954
1.897 -1.2794 2.6364 3.4909
1.8885 -1.2655 2.5988 3.4528
1.9338 -1.2875 2.635 3.5129
1.9511 -1.2908 2.6327 3.522
1.9434 -1.2776 2.5967 3.4859
1.9651 -1.2838 2.6002 3.5029
1.9846 -1.2886 2.6006 3.516
1.9863 -1.2818 2.5776 3.4975
1.9963 -1.2805 2.5657 3.494
2.0153 -1.285 2.5651 3.506
2.0235 -1.2826 2.5509 3.4995
2.0352 -1.2824 2.541 3.499
2.0553 -1.2875 2.5416 3.5131
2.0589 -1.2824 2.5218 3.4991
2.0666 -1.2799 2.5071 3.4921
2.0849 -1.2839 2.5053 3.5031
2.09 -1.2799 2.4877 3.4921
2.0978 -1.2775 2.4732 3.4856
2.117 -1.2821 2.4722 3.4982
2.1246 -1.2797 2.4577 3.4916
2.1419 -1.2832 2.4544 3.5012
2.155 -1.2842 2.4462 3.5039
2.1791 -1.2917 2.4502 3.5243
2.1797 -1.2852 2.4279 3.5067
2.1989 -1.2898 2.4263 3.5193
2.2115 -1.2906 2.4173 3.5214
nan nan nan -inf
nan nan nan -inf
nan nan nan -inf
nan nan nan -inf
nan nan nan -inf
nan nan nan -inf
nan nan nan -inf
nan nan nan -inf
nan nan nan -inf
nan nan nan -inf
nan nan nan -inf
nan nan nan -inf
nan nan nan -inf
nan nan nan -inf
nan nan nan -inf
nan nan nan -inf
nan nan nan -inf
nan nan nan -inf
nan nan nan -inf
nan nan nan -inf
nan nan nan -inf
nan nan nan -inf
nan nan nan -inf
nan nan nan -inf
nan nan nan -inf
nan nan nan -inf
nan nan nan -inf
nan nan nan -inf
nan nan nan -inf
nan nan nan -inf
nan nan nan -inf
nan nan nan -inf
nan nan nan -inf
nan nan nan -inf
nan nan nan -inf
nan nan nan -inf
nan nan nan -inf
nan nan nan -inf
nan nan nan -inf
nan nan nan -inf
nan nan nan -inf
nan nan nan -inf
nan nan nan -inf
nan nan nan -inf
nan nan nan -inf
nan nan nan -inf
nan nan nan -inf
nan nan nan -inf
nan nan nan -inf
nan nan nan -inf
nan nan nan -inf
nan nan nan -inf
nan nan nan -inf
nan nan nan -inf
nan nan nan -inf
nan nan nan -inf
nan nan nan -inf
nan nan nan -inf
nan nan nan -inf
nan nan nan -inf
nan nan nan -inf
nan nan nan -inf
nan nan nan -inf
nan nan nan -inf
nan nan nan -inf
nan nan nan -inf
nan nan nan -inf
nan nan nan -inf
nan nan nan -inf
nan nan nan -inf
nan nan nan -inf
nan nan nan -inf
nan nan nan -inf
nan nan nan -inf
nan nan nan -inf
nan nan nan -inf
nan nan nan -inf
nan nan nan -inf
nan nan nan -inf
-2.266 -1.2876 2.4141 3.5525
-2.2438 -1.2814 2.4131 3.5355
-2.2325 -1.2814 2.4235 3.5354
-2.2154 -1.2781 2.4277 3.5264
-2.2024 -1.2772 2.4363 3.5238
-2.1969 -1.2806 2.4532 3.5333
-2.1947 -1.2861 2.4739 3.5483
-2.183 -1.2861 2.4842 3.5483
-2.1499 -1.2733 2.4696 3.5132
-2.153 -1.282 2.4967 3.5373
-2.1431 -1.2831 2.5089 3.5403
-2.1205 -1.2766 2.506 3.5223
-2.1126 -1.279 2.5206 3.5288
-2.0999 -1.2784 2.5294 3.5273
-2.0803 -1.2737 2.5298 3.5142
-2.0608 -1.269 2.5301 3.5012
-2.0337 -1.2595 2.5209 3.4752
-2.0212 -1.2592 2.5296 3.4741
-2.0019 -1.2545 2.5296 3.4612
-1.9762 -1.2458 2.5213 3.4372
-1.9632 -1.245 2.529 3.4351
-1.9389 -1.2371 2.5219 3.4132
-1.9253 -1.236 2.5287 3.4101
-1.9045 -1.2301 2.5258 3.3941
-1.8865 -1.2261 2.5264 3.383
-1.868 -1.2218 2.5263 3.3711
-1.8424 -1.2127 2.5162 3.3461
-1.8289 -1.2116 2.5225 3.343
-1.8119 -1.2082 2.5238 3.3335
-1.7966 -1.2058 2.5273 3.327
-1.7815 -1.2037 2.5311 3.321
-1.7536 -1.1928 2.5164 3.2909
-1.7375 -1.1898 2.5185 3.2829
-1.7284 -1.1917 2.5305 3.288
-1.7097 -1.187 2.5285 3.275
-1.6963 -1.1859 2.5341 3.2719
-1.6868 -1.1875 2.5455 3.2764
-1.6746 -1.1873 2.553 3.276
-1.6616 -1.1866 2.5592 3.2739
-1.648 -1.1855 2.5646 3.2709
-1.63 -1.1811 2.5628 3.2588
-1.6294 -1.1895 2.5886 3.2819
-1.6168 -1.1891 2.5954 3.2809
-1.6031 -1.188 2.6005 3.2778
-1.5865 -1.1847 2.6008 3.2688
-1.5778 -1.1873 2.6139 3.2759
-1.5655 -1.1873 2.6212 3.2758
-1.5522 -1.1865 2.6269 3.2738
-1.539 -1.1858 2.6325 3.2717
-1.5416 -1.1974 2.6655 3.3038
-1.5235 -1.1931 2.663 3.2918
-1.511 -1.1931 2.67 3.2918
-1.4957 -1.1909 2.6722 3.2857
-1.4796 -1.188 2.6726 3.2777
-1.4805 -1.1989 2.7041 3.3078
-1.4567 -1.1898 2.6905 3.2827
-1.4375 -1.1843 2.6849 3.2677
-1.4249 -1.1843 2.6916 3.2677
-1.4123 -1.1843 2.6982 3.2676
-1.4121 -1.1949 2.7289 3.2967
-1.3989 -1.1945 2.7346 3.2957
-1.3856 -1.1941 2.7402 3.2947
-1.3711 -1.1926 2.7433 3.2906
-1.3549 -1.1897 2.743 3.2826
-1.338 -1.1861 2.7409 3.2725
-1.3401 -1.1995 2.7783 3.3097
-1.3263 -1.1988 2.7828 3.3076
-1.3049 -1.1912 2.7713 3.2866
-1.2911 -1.1904 2.7756 3.2846
-1.2769 -1.1894 2.7791 3.2815
-1.2639 -1.1894 2.785 3.2815
-1.2467 -1.1854 2.7815 3.2705
-1.245 -1.1963 2.813 3.3006
-1.2318 -1.1963 2.8188 3.3006
-1.2163 -1.1941 2.8194 3.2945
-1.2028 -1.1937 2.8241 3.2935
-1.1855 -1.1897 2.8203 3.2825
-1.1712 -1.1886 2.8232 3.2795
-1.1569 -1.1875 2.826 3.2764
-1.1591 -1.2035 2.8695 3.3205
-1.1405 -1.198 2.8619 3.3055
-1.1264 -1.1973 2.8654 3.3035
-1.1109 -1.1951 2.8655 3.2975
-1.0975 -1.1951 2.8706 3.2974
-1.0797 -1.1904 2.8643 3.2844
-1.0644 -1.1882 2.8641 3.2784
-1.0471 -1.1838 2.8585 3.2663
-1.048 -1.2002 2.903 3.3115
-1.0306 -1.1958 2.8973 3.2995
-1.0152 -1.1937 2.8968 3.2934
-1.0016 -1.1937 2.9015 3.2934
-0.9877 -1.1933 2.9052 3.2924
-0.97378 -1.1929 2.9089 3.2914
-0.95927 -1.1918 2.9108 3.2883
-0.94304 -1.1885 2.9072 3.2793
-0.93767 -1.1991 2.9374 3.3084
-0.92111 -1.1955 2.9329 3.2984
-0.90544 -1.1929 2.9309 3.2914
-0.89116 -1.1922 2.9333 3.2894
-0.87634 -1.1907 2.9339 3.2853
-0.86207 -1.19 2.9361 3.2833
-0.84831 -1.19 2.9401 3.2833
-0.83453 -1.19 2.944 3.2833
-0.82073 -1.19 2.9479 3.2833
-0.80323 -1.1845 2.9382 3.2682
-0.77838 -1.1679 2.9006 3.2224
-0.76479 -1.1679 2.9042 3.2223
-0.75048 -1.1668 2.9051 3.2193
-0.73687 -1.1668 2.9085 3.2193
-0.72032 -1.1621 2.9002 3.2063
-0.70629 -1.1614 2.9017 3.2043
-0.69269 -1.1613 2.9049 3.2043
-0.67824 -1.1599 2.9045 3.2002
-0.66463 -1.1599 2.9076 3.2002
-0.651 -1.1599 2.9107 3.2002
-0.63577 -1.157 2.9064 3.1922
-0.6206 -1.1541 2.9021 3.1842
-0.60551 -1.1512 2.8978 3.1763
-0.59249 -1.1523 2.9033 3.1793
-0.57889 -1.1523 2.906 3.1793
-0.56438 -1.1505 2.9041 3.1743
-0.54904 -1.1468 2.8975 3.1643
-0.53479 -1.1454 2.8964 3.1602
-0.52123 -1.1454 2.8989 3.1602
-0.50765 -1.1454 2.9013 3.1602
-0.49374 -1.1447 2.9018 3.1582
-0.4797 -1.1436 2.9013 3.1552
-0.46611 -1.1436 2.9035 3.1552
-0.45079 -1.1392 2.8946 3.1432
-0.43723 -1.1392 2.8966 3.1432
-0.42393 -1.1399 2.9005 3.1451
-0.40956 -1.1377 2.8969 3.1391
-0.39587 -1.1374 2.8978 3.1381
-0.3823 -1.1374 2.8997 3.1381
-0.36872 -1.1374 2.9014 3.1381
-0.35458 -1.1356 2.8986 3.1332
-0.341 -1.1356 2.9002 3.1332
-0.32721 -1.1349 2.8999 3.1312
-0.31323 -1.1334 2.8977 3.1272
-0.29889 -1.1305 2.8917 3.1192
-0.28535 -1.1305 2.8931 3.1192
-0.2718 -1.1305 2.8944 3.1192
-0.25784 -1.1287 2.891 3.1142
-0.2443 -1.1287 2.8921 3.1142
-0.23076 -1.1287 2.8932 3.1142
-0.21707 -1.128 2.8924 3.1122
-0.20339 -1.1272 2.8916 3.1102
-0.18985 -1.1272 2.8925 3.1102
-0.1762 -1.1265 2.8915 3.1082
-0.16276 -1.1272 2.8941 3.1102
-0.14921 -1.1272 2.8948 3.1101
-0.13557 -1.1265 2.8936 3.1081
-0.12159 -1.1225 2.884 3.0971
-0.10809 -1.1225 2.8845 3.0971
-0.09458 -1.1225 2.885 3.0971
-0.081125 -1.1232 2.8873 3.0991
-0.067607 -1.1232 2.8876 3.0991
-0.054087 -1.1232 2.8879 3.0991
-0.040567 -1.1232 2.8881 3.0991
-0.027045 -1.1232 2.8883 3.0991
-0.013536 -1.1243 2.8912 3.1021
0 -1.1243 2.8912 3.1021
0.013557 -1.1261 2.8958 3.1071
0.027114 -1.1261 2.8957 3.1071
0.040605 -1.1243 2.8909 3.1021
0.054139 -1.1243 2.8907 3.1021
0.067628 -1.1236 2.8886 3.1001
0.08115 -1.1236 2.8882 3.1001
0.094732 -1.1243 2.8897 3.1021
0.10864 -1.1283 2.8994 3.1131
0.12222 -1.1283 2.8989 3.1131
0.13579 -1.1283 2.8983 3.1131
0.14902 -1.1258 2.8911 3.1062
0.16234 -1.1243 2.8867 3.1022
0.17586 -1.1243 2.8859 3.1022
0.18936 -1.1243 2.885 3.1022
0.20372 -1.1291 2.8962 3.1152
0.21728 -1.1291 2.8952 3.1152
0.23083 -1.1291 2.8942 3.1152
0.24438 -1.1291 2.8931 3.1152
0.25792 -1.1291 2.8919 3.1152
0.27102 -1.1273 2.886 3.1102
0.28453 -1.1273 2.8847 3.1102
0.29822 -1.128 2.8852 3.1122
0.31203 -1.1291 2.8866 3.1152
0.32523 -1.128 2.8823 3.1122
0.34013 -1.1327 2.8928 3.1252
0.35367 -1.1327 2.8912 3.1252
0.3672 -1.1327 2.8895 3.1252
0.38156 -1.1352 2.8941 3.1321
0.39511 -1.1352 2.8923 3.1321
0.40865 -1.1352 2.8904 3.1321
0.42218 -1.1352 2.8885 3.1321
0.43667 -1.1377 2.8929 3.1392
0.45021 -1.1378 2.8909 3.1392
0.46522 -1.1414 2.898 3.1492
0.47878 -1.1414 2.8958 3.1492
0.49234 -1.1414 2.8935 3.1492
0.50524 -1.1399 2.8875 3.1452
0.51859 -1.1396 2.8842 3.1442
0.53209 -1.1396 2.8817 3.1442
0.54557 -1.1396 2.8792 3.1442
0.55976 -1.1411 2.8803 3.1483
0.57361 -1.1418 2.8795 3.1503
0.58708 -1.1418 2.8768 3.1503
0.60207 -1.1447 2.8813 3.1583
0.61826 -1.1497 2.8911 3.1722
0.63219 -1.1504 2.89 3.1742
0.64632 -1.1515 2.8898 3.1772
0.65985 -1.1515 2.8867 3.1772
0.67336 -1.1516 2.8836 3.1772
0.68815 -1.1537 2.8859 3.1833
0.7021 -1.1545 2.8845 3.1853
0.71628 -1.1556 2.8839 3.1883
0.73298 -1.1606 2.8932 3.2023
0.74675 -1.161 2.8906 3.2033
0.76028 -1.161 2.8871 3.2033
0.77379 -1.161 2.8835 3.2034
0.78753 -1.1614 2.8808 3.2044
0.81348 -1.1795 2.9219 3.2543
0.82843 -1.1813 2.9225 3.2593
0.8421 -1.1813 2.9186 3.2593
0.85445 -1.1795 2.9102 3.2543
0.86647 -1.1773 2.9008 3.2483
0.86786 -1.161 2.8566 3.2034
0.87187 -1.1487 2.8223 3.1694
0.86916 -1.1281 2.7675 3.1124
0.86653 -1.1081 2.7146 3.0574
0.85307 -1.0752 2.6299 2.9665
0.86767 -1.078 2.6328 2.9743
0.86461 -1.0592 2.5828 2.9223
0.8635 -1.0432 2.5399 2.8784
0.87234 -1.0396 2.527 2.8684
0.88109 -1.036 2.5142 2.8584
0.89286 -1.036 2.51 2.8584
0.90461 -1.036 2.5058 2.8585
0.91634 -1.036 2.5016 2.8585
0.93255 -1.0411 2.5094 2.8724
0.94692 -1.044 2.512 2.8804
0.96035 -1.0458 2.5119 2.8854
0.97278 -1.0465 2.5092 2.8875
0.98691 -1.0491 2.5107 2.8945
1.0214 -1.073 2.5632 2.9605
1.1937 -1.2394 2.9551 3.4195
1.2487 -1.2817 3.0503 3.5364
1.2637 -1.2825 3.0461 3.5385
1.278 -1.2825 3.0402 3.5385
1.2948 -1.285 3.0402 3.5455
1.3109 -1.2869 3.0384 3.5505
1.3314 -1.293 3.0468 3.5676
1.3461 -1.2934 3.0414 3.5686
1.3461 -1.2799 3.0035 3.5315
1.3679 -1.2872 3.0142 3.5515
1.382 -1.2872 3.0078 3.5516
1.3961 -1.2872 3.0013 3.5516
1.4101 -1.2872 2.9947 3.5516
1.4294 -1.292 2.9991 3.5647
1.4263 -1.2767 2.957 3.5225
1.4439 -1.28 2.9579 3.5316
1.4623 -1.284 2.9603 3.5426
1.4782 -1.2858 2.9576 3.5476
1.4983 -1.2913 2.9632 3.5627
1.5143 -1.2931 2.9603 3.5677
1.508 -1.276 2.9142 3.5206
1.5281 -1.2814 2.9195 3.5356
1.5479 -1.2865 2.9239 3.5496
1.5638 -1.2884 2.9207 3.5547
1.5779 -1.2887 2.9142 3.5557
1.5965 -1.2927 2.9158 3.5668
1.5893 -1.276 2.8707 3.5207
1.6168 -1.2873 2.8885 3.5517
1.6308 -1.2877 2.8817 3.5527
1.6443 -1.2877 2.8741 3.5528
1.6578 -1.2877 2.8664 3.5528
1.6603 -1.2793 2.84 3.5297
1.6769 -1.2819 2.8379 3.5368
1.7012 -1.2902 2.8484 3.5598
1.7145 -1.2902 2.8405 3.5599
1.7156 -1.2811 2.8125 3.5348
1.7327 -1.2841 2.8108 3.5428
1.7493 -1.2866 2.8082 3.5499
1.7625 -1.2866 2.8 3.5499
1.7665 -1.2801 2.7775 3.5318
1.78 -1.2804 2.77 3.5329
1.8001 -1.2855 2.7726 3.5469
1.8146 -1.2866 2.7666 3.5499
1.8252 -1.285 2.7545 3.5454
1.8378 -1.2848 2.7455 3.5449
1.8528 -1.2863 2.74 3.549
1.8672 -1.2874 2.7337 3.552
1.8646 -1.2768 2.7026 3.5229
1.8916 -1.2866 2.7145 3.55
1.9054 -1.2874 2.7072 3.552
1.9181 -1.2874 2.6983 3.5521
1.9149 -1.2769 2.6673 3.523
1.9367 -1.283 2.6711 3.54
1.9564 -1.2878 2.6718 3.5531
1.9516 -1.2765 2.6393 3.522
1.9668 -1.2783 2.6339 3.527
1.9836 -1.2812 2.6307 3.5351
2.0004 -1.2842 2.6273 3.5431
2.015 -1.2856 2.6209 3.5472
2.0192 -1.2805 2.6011 3.5331
2.0331 -1.2816 2.5939 3.5361
2.047 -1.2827 2.5866 3.5392
2.0567 -1.2813 2.574 3.5351
2.0752 -1.2853 2.5724 3.5462
2.0884 -1.286 2.5641 3.5482
2.0856 -1.2769 2.5363 3.5232
2.1034 -1.2806 2.5337 3.5332
2.1183 -1.2824 2.5274 3.5382
2.1289 -1.2817 2.516 3.5363
2.1504 -1.2875 2.5174 3.5523
2.1591 -1.2857 2.5038 3.5473
2.1702 -1.2853 2.4929 3.5463
2.1787 -1.2835 2.4793 3.5413
2.191 -1.2839 2.4697 3.5423
2.2075 -1.2868 2.465 3.5504
2.2015 -1.2766 2.4353 3.5223
2.2164 -1.2787 2.4289 3.528
2.2419 -1.2868 2.4338 3.5504
2.2628 -1.2923 2.4336 3.5655
2.2774 -1.2941 2.4264 3.5705
nan nan nan -inf
nan nan nan -inf
nan nan nan -inf
nan nan nan -inf
nan nan nan -inf
nan nan nan -inf
nan nan nan -inf
nan nan nan -inf
nan nan nan -inf
nan nan nan -inf
nan nan nan -inf
nan nan nan -inf
nan nan nan -inf
nan nan nan -inf
nan nan nan -inf
nan nan nan -inf
nan nan nan -inf
nan nan nan -inf
nan nan nan -inf
nan nan nan -inf
nan nan nan -inf
nan nan nan -inf
nan nan nan -inf
nan nan nan -inf
nan nan nan -inf
nan nan nan -inf
nan nan nan -inf
nan nan nan -inf
nan nan nan -inf
nan nan nan -inf
nan nan nan -inf
nan nan nan -inf
nan nan nan -inf
nan nan nan -inf
nan nan nan -inf
nan nan nan -inf
nan nan nan -inf
nan nan nan -inf
nan nan nan -inf
nan nan nan -inf
nan nan nan -inf
nan nan nan -inf
nan nan nan -inf
nan nan nan -inf
nan nan nan -inf
nan nan nan -inf
nan nan nan -inf
nan nan nan -inf
nan nan nan -inf
nan nan nan -inf
nan nan nan -inf
nan nan nan -inf
nan nan nan -inf
nan nan nan -inf
nan nan nan -inf
nan nan nan -inf
nan nan nan -inf
nan nan nan -inf
nan nan nan -inf
nan nan nan -inf
nan nan nan -inf
nan nan nan -inf
nan nan nan -inf
nan nan nan -inf
nan nan nan -inf
nan nan nan -inf
nan nan nan -inf
nan nan nan -inf
nan nan nan -inf
nan nan nan -inf
nan nan nan -inf
nan nan nan -inf
nan nan nan -inf
-2.3284 -1.2886 2.4181 3.5957
-2.3122 -1.2859 2.4239 3.5882
-2.2949 -1.2826 2.4284 3.5789
-2.2739 -1.2772 2.4288 3.5639
-2.2655 -1.2788 2.4426 3.5685
-2.2598 -1.2821 2.4594 3.5775
-2.2467 -1.2812 2.4682 3.575
-2.246 -1.2874 2.4908 3.5925
-2.23 -1.2849 2.4964 3.5855
-2.2158 -1.2835 2.5039 3.5815
-2.1837 -1.2716 2.491 3.5483
-2.1874 -1.2806 2.5189 3.5734
-2.1704 -1.2776 2.523 3.5649
-2.1535 -1.2745 2.5271 3.5564
-2.1368 -1.2716 2.5314 3.5484
-2.1202 -1.2688 2.5357 3.5404
-2.088 -1.2566 2.5211 3.5064
-2.0724 -1.2542 2.5261 3.4999
-2.0567 -1.2519 2.5311 3.4934
-2.0448 -1.2519 2.5406 3.4933
-2.0163 -1.2417 2.5293 3.4648
-1.9909 -1.2333 2.5215 3.4413
-1.9791 -1.2332 2.5308 3.4413
-1.9661 -1.2325 2.5385 3.4392
-1.9332 -1.2193 2.5203 3.4023
-1.9208 -1.2189 2.5285 3.4013
-1.905 -1.2164 2.5322 3.3942
-1.8873 -1.2126 2.5332 3.3837
-1.8613 -1.2035 2.5229 3.3582
-1.8484 -1.2027 2.53 3.3562
-1.8266 -1.1963 2.525 3.3381
-1.8083 -1.192 2.5244 3.3262
-1.7927 -1.1895 2.5275 3.3192
-1.776 -1.1862 2.5289 3.3101
-1.7615 -1.1844 2.5333 3.3051
-1.7579 -1.19 2.5535 3.3206
-1.7462 -1.1902 2.5621 3.3211
-1.7279 -1.1859 2.5609 3.3091
-1.7143 -1.1848 2.5666 3.306
-1.7163 -1.1945 2.5956 3.3331
-1.7021 -1.193 2.6005 3.3291
-1.6792 -1.1855 2.5919 3.308
-1.661 -1.1812 2.5903 3.296
-1.6576 -1.1875 2.6118 3.3135
-1.6551 -1.1945 2.635 3.333
-1.6403 -1.1926 2.6387 3.328
-1.6211 -1.1876 2.6351 3.314
-1.6107 -1.1891 2.6459 3.318
-1.6075 -1.1959 2.6686 3.337
-1.595 -1.1959 2.6761 3.337
-1.5748 -1.1901 2.6706 3.3209
-1.5571 -1.1862 2.669 3.3099
-1.5573 -1.1959 2.6982 3.337
-1.5433 -1.1948 2.7029 3.3339
-1.5255 -1.1908 2.7012 3.3229
-1.5088 -1.1876 2.7009 3.3138
-1.4943 -1.1861 2.7046 3.3098
-1.4898 -1.1926 2.7264 3.3279
-1.4757 -1.1915 2.7308 3.3249
-1.4607 -1.1897 2.7336 3.3198
-1.4474 -1.1893 2.7395 3.3188
-1.4346 -1.1893 2.7462 3.3188
-1.4381 -1.203 2.7845 3.3569
-1.4178 -1.1969 2.777 3.3398
-1.3955 -1.189 2.7652 3.3178
-1.3826 -1.189 2.7717 3.3178
-1.3679 -1.1875 2.7748 3.3137
-1.3533 -1.1861 2.7777 3.3097
-1.3501 -1.1947 2.8043 3.3338
-1.3369 -1.1947 2.8106 3.3338
-1.3238 -1.1947 2.8168 3.3337
-1.2921 -1.1778 2.783 3.2866
-1.297 -1.1943 2.8281 3.3327
-1.2834 -1.194 2.8333 3.3317
-1.2644 -1.1886 2.8264 3.3166
-1.2451 -1.1828 2.8186 3.3006
-1.2458 -1.1961 2.8562 3.3377
-1.2317 -1.1954 2.8602 3.3357
-1.2175 -1.1947 2.8642 3.3337
-1.203 -1.1936 2.8673 3.3306
-1.1893 -1.1932 2.872 3.3296
-1.1755 -1.1929 2.8766 3.3286
-1.154 -1.1846 2.8621 3.3055
-1.1551 -1.1997 2.904 3.3477
-1.1378 -1.1957 2.8998 3.3366
-1.1201 -1.1914 2.8946 3.3246
-1.1059 -1.1907 2.898 3.3226
-1.092 -1.1903 2.9023 3.3216
-1.0784 -1.1903 2.9073 3.3215
-1.0648 -1.1903 2.9123 3.3215
-1.0588 -1.199 2.9385 3.3456
-1.0404 -1.1936 2.9301 3.3306
-1.0236 -1.19 2.9261 3.3206
-1.0099 -1.19 2.9309 3.3205
-0.9962 -1.19 2.9355 3.3205
-0.98098 -1.1882 2.9357 3.3155
-0.96608 -1.1867 2.9367 3.3115
-0.95147 -1.1856 2.9385 3.3084
-0.9267 -1.1717 2.9083 3.2696
-0.9131 -1.1717 2.9126 3.2696
-0.89644 -1.1678 2.907 3.2585
-0.88095 -1.1652 2.9049 3.2515
-0.86522 -1.1624 2.9018 3.2435
-0.85138 -1.162 2.9049 3.2425
-0.83676 -1.1606 2.9052 3.2384
-0.82164 -1.1584 2.9037 3.2324
-0.8073 -1.1573 2.9048 3.2294
-0.79322 -1.1566 2.9067 3.2274
-0.77841 -1.1548 2.9059 3.2224
-0.76248 -1.1513 2.9006 3.2125
-0.74914 -1.1516 2.905 3.2135
-0.73395 -1.1491 2.9021 3.2065
-0.72015 -1.1487 2.9046 3.2054
-0.70502 -1.1462 2.9016 3.1984
-0.69145 -1.1462 2.9048 3.1984
-0.67553 -1.1423 2.898 3.1874
-0.66094 -1.1405 2.8965 3.1824
-0.64617 -1.1383 2.8941 3.1764
-0.63323 -1.1394 2.8998 3.1793
-0.61908 -1.1383 2.9 3.1763
-0.60609 -1.1394 2.9056 3.1793
-0.59104 -1.1365 2.9012 3.1714
-0.57547 -1.1326 2.8938 3.1604
-0.56087 -1.1304 2.891 3.1544
-0.54735 -1.1304 2.8936 3.1544
-0.53381 -1.1304 2.8961 3.1544
-0.51994 -1.1297 2.8967 3.1524
-0.50623 -1.1293 2.8982 3.1514
-0.49205 -1.1279 2.8968 3.1473
-0.47805 -1.1268 2.8963 3.1443
-0.46451 -1.1268 2.8985 3.1443
-0.45124 -1.1275 2.9025 3.1463
-0.43767 -1.1275 2.9045 3.1463
-0.42409 -1.1275 2.9065 3.1463
-0.4105 -1.1275 2.9085 3.1463
-0.39614 -1.1254 2.9048 3.1403
-0.38171 -1.1229 2.9001 3.1333
-0.36815 -1.1229 2.9019 3.1332
-0.35458 -1.1229 2.9036 3.1332
-0.33961 -1.1182 2.8933 3.1204
-0.32608 -1.1182 2.8948 3.1204
-0.31255 -1.1182 2.8963 3.1204
-0.29901 -1.1182 2.8977 3.1204
-0.28546 -1.1182 2.8991 3.1203
-0.27173 -1.1175 2.8985 3.1183
-0.25818 -1.1175 2.8997 3.1183
-0.24431 -1.1161 2.8972 3.1143
-0.23077 -1.1161 2.8983 3.1143
-0.21687 -1.1143 2.8947 3.1093
-0.20334 -1.1143 2.8957 3.1093
-0.1898 -1.1143 2.8966 3.1093
-0.17626 -1.1143 2.8974 3.1093
-0.16261 -1.1136 2.8964 3.1073
-0.14907 -1.1136 2.8971 3.1073
-0.13553 -1.1136 2.8977 3.1073
-0.12187 -1.1125 2.8955 3.1043
-0.10833 -1.1125 2.8961 3.1043
-0.094798 -1.1125 2.8965 3.1043
-0.081259 -1.1125 2.897 3.1043
-0.067719 -1.1125 2.8973 3.1043
-0.054177 -1.1125 2.8976 3.1043
-0.040634 -1.1125 2.8978 3.1043
-0.02709 -1.1125 2.898 3.1043
-0.013546 -1.1125 2.8981 3.1043
0 -1.1125 2.8981 3.1043
0.013527 -1.111 2.8943 3.1003
0.027054 -1.111 2.8942 3.1003
0.040581 -1.111 2.8941 3.1003
0.054194 -1.1128 2.8985 3.1053
0.06774 -1.1128 2.8982 3.1053
0.081285 -1.1128 2.8979 3.1053
0.094584 -1.11 2.89 3.0973
0.10809 -1.11 2.8895 3.0973
0.12159 -1.11 2.889 3.0973
0.13549 -1.1132 2.8968 3.1063
0.14903 -1.1132 2.8961 3.1063
0.16256 -1.1132 2.8954 3.1063
0.17609 -1.1132 2.8946 3.1063
0.18962 -1.1132 2.8938 3.1063
0.20327 -1.1139 2.8947 3.1083
0.2168 -1.1139 2.8938 3.1083
0.23032 -1.1139 2.8927 3.1083
0.24384 -1.1139 2.8916 3.1083
0.2571 -1.1129 2.8877 3.1053
0.2706 -1.1129 2.8864 3.1053
0.28409 -1.1129 2.8851 3.1053
0.29785 -1.1139 2.8866 3.1084
0.31224 -1.1172 2.8935 3.1174
0.32577 -1.1172 2.892 3.1174
0.33884 -1.1157 2.8868 3.1134
0.35367 -1.12 2.8961 3.1252
0.36721 -1.12 2.8945 3.1252
0.38098 -1.1207 2.8946 3.1273
0.39513 -1.1225 2.8974 3.1323
0.40867 -1.1225 2.8955 3.1323
0.4222 -1.1225 2.8936 3.1323
0.43391 -1.1179 2.8796 3.1193
0.44737 -1.1179 2.8776 3.1193
0.46081 -1.1179 2.8754 3.1193
0.47623 -1.1225 2.8852 3.1323
0.49018 -1.1236 2.8858 3.1353
0.50366 -1.1236 2.8834 3.1354
0.51713 -1.1236 2.8811 3.1354
0.5306 -1.1236 2.8786 3.1354
0.54405 -1.1236 2.8761 3.1354
0.55909 -1.1269 2.8818 3.1444
0.57273 -1.1272 2.8801 3.1454
0.58619 -1.1272 2.8774 3.1454
0.60209 -1.1318 2.8864 3.1583
0.61557 -1.1318 2.8836 3.1583
0.62905 -1.1318 2.8807 3.1583
0.64373 -1.134 2.8832 3.1644
0.6572 -1.134 2.8802 3.1644
0.67235 -1.1369 2.8843 3.1724
0.68583 -1.1369 2.8812 3.1724
0.70348 -1.1437 2.8952 3.1914
0.71701 -1.1437 2.8919 3.1914
0.73052 -1.1437 2.8885 3.1915
0.74448 -1.1444 2.8869 3.1935
0.75797 -1.1444 2.8834 3.1935
0.77144 -1.1445 2.8799 3.1935
0.78757 -1.1483 2.886 3.2044
0.80105 -1.1484 2.8823 3.2044
0.81554 -1.1498 2.8822 3.2084
0.829 -1.1498 2.8783 3.2084
0.84613 -1.1548 2.887 3.2225
0.85962 -1.1548 2.883 3.2225
0.87309 -1.1548 2.879 3.2225
0.86728 -1.1298 2.8124 3.1525
0.86953 -1.1158 2.7736 3.1135
0.86775 -1.0972 2.7233 3.0616
0.8626 -1.0749 2.664 2.9994
0.86543 -1.0631 2.6307 2.9665
0.86648 -1.0495 2.593 2.9285
0.86299 -1.0309 2.543 2.8765
0.87275 -1.0284 2.5328 2.8695
0.88242 -1.0259 2.5225 2.8626
0.89421 -1.0259 2.5184 2.8626
0.90598 -1.0259 2.5142 2.8626
0.91965 -1.028 2.5153 2.8686
0.92909 -1.0255 2.5047 2.8615
0.94605 -1.0312 2.5143 2.8776
0.96047 -1.0341 2.5169 2.8856
0.97459 -1.0366 2.5185 2.8926
0.98704 -1.0373 2.5157 2.8946
1.0129 -1.052 2.5466 2.9357
1.0248 -1.052 2.5419 2.9357
1.2623 -1.281 3.0892 3.5746
1.2785 -1.2828 3.0876 3.5796
1.2984 -1.2882 3.0945 3.5946
1.3139 -1.2893 3.091 3.5977
1.3295 -1.2904 3.0874 3.6007
1.3458 -1.2922 3.0855 3.6057
1.3458 -1.2785 3.0466 3.5676
1.3673 -1.2853 3.0565 3.5866
1.3816 -1.2853 3.0501 3.5867
1.397 -1.2864 3.0462 3.5897
1.414 -1.289 3.0456 3.5967
1.4322 -1.2925 3.0474 3.6068
1.45 -1.2958 3.0483 3.6158
1.4464 -1.28 3.0044 3.5717
1.4666 -1.2854 3.0102 3.5867
1.4806 -1.2854 3.0034 3.5868
1.498 -1.2883 3.0031 3.5948
1.5121 -1.2883 2.9961 3.5948
1.5337 -1.2947 3.004 3.6129
1.5293 -1.2793 2.9611 3.5697
1.5431 -1.2793 2.9539 3.5697
1.5573 -1.2797 2.9475 3.5708
1.5803 -1.2872 2.9575 3.5918
1.5942 -1.2872 2.9501 3.5919
1.6151 -1.293 2.9558 3.6079
1.6135 -1.2807 2.9203 3.5738
1.6331 -1.2854 2.9234 3.5868
1.6495 -1.2876 2.9206 3.5929
1.665 -1.289 2.9162 3.5969
1.6796 -1.2897 2.91 3.599
1.6757 -1.2765 2.8722 3.5619
1.7 -1.2847 2.8829 3.5849
1.7216 -1.2908 2.8886 3.6019
1.737 -1.2923 2.8837 3.606
1.7425 -1.2863 2.8624 3.5895
1.7483 -1.2808 2.8419 3.5739
1.767 -1.2847 2.8424 3.585
1.7887 -1.2909 2.8476 3.602
1.7804 -1.2754 2.8053 3.5589
1.8016 -1.2812 2.8095 3.575
1.8234 -1.2873 2.8144 3.592
1.8386 -1.2887 2.809 3.5961
1.8579 -1.293 2.8098 3.6081
1.8543 -1.2815 2.7762 3.576
1.8725 -1.2851 2.7752 3.5861
1.8903 -1.2884 2.7734 3.5951
1.8947 -1.2826 2.7523 3.5791
1.9017 -1.2787 2.7349 3.5681
1.9188 -1.2816 2.7322 3.5761
1.9396 -1.287 2.7346 3.5912
1.9361 -1.2762 2.7027 3.5611
1.9514 -1.278 2.6974 3.5662
1.9789 -1.2877 2.7087 3.5932
1.9993 -1.2927 2.71 3.6073
1.9824 -1.2737 2.6608 3.5541
2.0043 -1.2798 2.6642 3.5712
2.0207 -1.2823 2.6601 3.5782
2.0451 -1.2899 2.6662 3.5993
2.0301 -1.2726 2.6211 3.5512
2.0498 -1.2773 2.6212 3.5643
2.0783 -1.2874 2.6322 3.5923
2.0873 -1.2854 2.6184 3.5868
2.0952 -1.2827 2.6031 3.5793
2.1097 -1.2842 2.5963 3.5834
2.1174 -1.2815 2.581 3.5759
2.1243 -1.2784 2.5649 3.5674
2.1471 -1.2849 2.5679 3.5854
2.1428 -1.2752 2.5385 3.5584
2.1759 -1.2878 2.5534 3.5934
2.1884 -1.2881 2.544 3.5945
2.1862 -1.2799 2.5175 3.5714
2.2078 -1.2856 2.5185 3.5875
2.2134 -1.2821 2.5011 3.5775
2.2294 -1.2846 2.4957 3.5845
2.2479 -1.2885 2.4929 3.5955
2.2375 -1.276 2.4581 3.5605
2.2654 -1.2853 2.4655 3.5865
2.2798 -1.2869 2.458 3.591
2.2865 -1.2842 2.4422 3.5835
2.309 -1.2905 2.4433 3.6009
2.3206 -1.2905 2.4326 3.6011
2.3394 -1.2947 2.4295 3.6127
nan nan nan -inf
nan nan nan -inf
nan nan nan -inf
nan nan nan -inf
nan nan nan -inf
nan nan nan -inf
nan nan nan -inf
nan nan nan -inf
nan nan nan -inf
nan nan nan -inf
nan nan nan -inf
nan nan nan -inf
nan nan nan -inf
nan nan nan -inf
nan nan nan -inf
nan nan nan -inf
nan nan nan -inf
nan nan nan -inf
nan nan nan -inf
nan nan nan -inf
nan nan nan -inf
nan nan nan -inf
nan nan nan -inf
nan nan nan -inf
nan nan nan -inf
nan nan nan -inf
nan nan nan -inf
nan nan nan -inf
nan nan nan -inf
nan nan nan -inf
nan nan nan -inf
nan nan nan -inf
nan nan nan -inf
nan nan nan -inf
nan nan nan -inf
nan nan nan -inf
nan nan nan -inf
nan nan nan -inf
nan nan nan -inf
nan nan nan -inf
nan nan nan -inf
nan nan nan -inf
nan nan nan -inf
nan nan nan -inf
nan nan nan -inf
nan nan nan -inf
nan nan nan -inf
nan nan nan -inf
nan nan nan -inf
nan nan nan -inf
nan nan nan -inf
nan nan nan -inf
nan nan nan -inf
nan nan nan -inf
nan nan nan -inf
nan nan nan -inf
nan nan nan -inf
nan nan nan -inf
nan nan nan -inf
nan nan nan -inf
nan nan nan -inf
nan nan nan -inf
nan nan nan -inf
nan nan nan -inf
nan nan nan -inf
nan nan nan -inf
-2.3966 -1.286 2.4039 3.6299
-2.3833 -1.285 2.413 3.6268
-2.3753 -1.2867 2.4274 3.6318
-2.3555 -1.2821 2.4297 3.6188
-2.3337 -1.2764 2.4298 3.6027
-2.3314 -1.2814 2.4502 3.6167
-2.3206 -1.2817 2.4617 3.6177
-2.3116 -1.2831 2.4752 3.6217
-2.3076 -1.2874 2.4942 3.6337
-2.2963 -1.2876 2.5053 3.6342
-2.2773 -1.2835 2.508 3.6227
-2.2618 -1.2813 2.5144 3.6166
-2.2351 -1.2728 2.5081 3.5925
-2.2358 -1.2799 2.5326 3.6126
-2.2221 -1.2788 2.5409 3.6096
-2.1918 -1.2682 2.53 3.5796
-2.1733 -1.2643 2.5324 3.5686
-2.1572 -1.2618 2.5375 3.5615
-2.1357 -1.2562 2.5361 3.5456
-2.1023 -1.2434 2.5202 3.5095
-2.0815 -1.2381 2.5191 3.4945
-2.0704 -1.2384 2.5296 3.4955
-2.0561 -1.237 2.5363 3.4915
-2.0413 -1.2352 2.5421 3.4864
-2.0097 -1.2232 2.5268 3.4525
-1.9979 -1.2232 2.5361 3.4525
-1.9727 -1.215 2.5284 3.4294
-1.9483 -1.2072 2.5213 3.4074
-1.928 -1.2019 2.5192 3.3924
-1.9112 -1.1987 2.5215 3.3834
-1.8982 -1.198 2.5288 3.3813
-1.8742 -1.1902 2.5212 3.3594
-1.8596 -1.1884 2.5261 3.3543
-1.8466 -1.1877 2.5332 3.3523
-1.834 -1.1872 2.5407 3.3508
-1.8208 -1.1863 2.5473 3.3483
-1.8051 -1.1838 2.5504 3.3413
-1.7813 -1.1759 2.5419 3.3192
-1.7801 -1.1831 2.5656 3.3392
-1.7755 -1.188 2.5847 3.3533
-1.7619 -1.187 2.5906 3.3503
-1.7424 -1.182 2.5879 3.3362
-1.7303 -1.182 2.596 3.3362
-1.7332 -1.1923 2.6267 3.3653
-1.7203 -1.1919 2.6339 3.3642
-1.708 -1.1919 2.6419 3.3642
-1.6861 -1.1851 2.6349 3.3451
-1.6853 -1.1933 2.6609 3.3682
-1.6719 -1.1926 2.6671 3.3662
-1.6549 -1.1894 2.6677 3.3571
-1.6341 -1.1834 2.6618 3.3401
-1.6421 -1.1983 2.7031 3.3822
-1.629 -1.1979 2.7099 3.3811
-1.6058 -1.1901 2.6997 3.3591
-1.5917 -1.189 2.7047 3.356
-1.5781 -1.1883 2.7105 3.354
-1.5772 -1.1972 2.7382 3.3791
-1.5602 -1.194 2.7381 3.3701
-1.5465 -1.1933 2.7437 3.368
-1.5286 -1.1893 2.7419 3.357
-1.5108 -1.1854 2.74 3.3459
-1.5129 -1.1972 2.7742 3.379
-1.4955 -1.1936 2.7729 3.369
-1.4807 -1.1922 2.7765 3.365
-1.4673 -1.1918 2.7826 3.3639
-1.453 -1.1907 2.7869 3.3609
-1.4499 -1.1989 2.8128 3.384
-1.4367 -1.1989 2.8195 3.384
-1.4235 -1.1989 2.8262 3.3839
-1.407 -1.1961 2.8261 3.3759
-1.3876 -1.1907 2.82 3.3609
-1.367 -1.1843 2.8113 3.3428
-1.3502 -1.1811 2.81 3.3338
-1.3544 -1.1964 2.8527 3.3769
-1.3239 -1.1811 2.8224 3.3337
-1.3261 -1.195 2.8618 3.3729
-1.312 -1.1943 2.8662 3.3708
-1.2963 -1.1921 2.8672 3.3648
-1.2809 -1.1903 2.8689 3.3598
-1.2592 -1.1825 2.856 3.3378
-1.2646 -1.2003 2.9048 3.3879
-1.2455 -1.195 2.8977 3.3728
-1.2308 -1.1939 2.9009 3.3698
-1.2144 -1.191 2.8997 3.3618
-1.2008 -1.191 2.9053 3.3617
-1.1855 -1.1893 2.9065 3.3567
-1.1719 -1.1892 2.912 3.3567
-1.1649 -1.196 2.934 3.3758
-1.1485 -1.1932 2.9325 3.3678
-1.1334 -1.1917 2.9343 3.3637
-1.1197 -1.1917 2.9395 3.3637
-1.1056 -1.1914 2.9438 3.3627
-1.0903 -1.1896 2.9445 3.3577
-1.0752 -1.1882 2.946 3.3536
-1.0441 -1.1687 2.9027 3.2987
-1.0305 -1.1687 2.9075 3.2987
-1.0151 -1.1666 2.907 3.2927
-1.0015 -1.1666 2.9117 3.2927
-0.9858 -1.1641 2.9101 3.2857
-0.96984 -1.1612 2.9076 3.2776
-0.9545 -1.1591 2.9067 3.2716
-0.94064 -1.1587 2.9102 3.2706
-0.92704 -1.1587 2.9145 3.2706
-0.9076 -1.1513 2.9002 3.2497
-0.89405 -1.1513 2.9044 3.2497
-0.88049 -1.1513 2.9085 3.2497
-0.8653 -1.1492 2.9072 3.2436
-0.85067 -1.1478 2.9076 3.2396
-0.83528 -1.1453 2.9052 3.2326
-0.82044 -1.1435 2.9046 3.2276
-0.80462 -1.1403 2.9002 3.2186
-0.79058 -1.1396 2.9021 3.2165
-0.7763 -1.1385 2.9031 3.2135
-0.76017 -1.1347 2.8968 3.2026
-0.74781 -1.1364 2.9048 3.2076
-0.73424 -1.1364 2.9083 3.2076
-0.71953 -1.1346 2.9071 3.2026
-0.70596 -1.1346 2.9104 3.2026
-0.68696 -1.1258 2.8909 3.1775
-0.67346 -1.1258 2.8941 3.1775
-0.65995 -1.1258 2.8972 3.1775
-0.64642 -1.1258 2.9002 3.1775
-0.63288 -1.1258 2.9032 3.1775
-0.61913 -1.1254 2.9052 3.1765
-0.60461 -1.1236 2.9035 3.1715
-0.59105 -1.1236 2.9062 3.1714
-0.57441 -1.1176 2.8935 3.1546
-0.56144 -1.1187 2.8989 3.1576
-0.5479 -1.1187 2.9014 3.1575
-0.53385 -1.1176 2.9012 3.1545
-0.51865 -1.1141 2.8944 3.1445
-0.50514 -1.1141 2.8968 3.1445
-0.49162 -1.1141 2.8991 3.1445
-0.47808 -1.1141 2.9014 3.1445
-0.46454 -1.1141 2.9036 3.1445
-0.44998 -1.1116 2.8992 3.1375
-0.43644 -1.1116 2.9013 3.1374
-0.42263 -1.1109 2.9014 3.1354
-0.40883 -1.1101 2.9015 3.1334
-0.39528 -1.1101 2.9034 3.1334
-0.38063 -1.1069 2.8968 3.1244
-0.36711 -1.1069 2.8986 3.1244
-0.35324 -1.1059 2.8975 3.1214
-0.33961 -1.1055 2.8981 3.1204
-0.32608 -1.1055 2.8997 3.1204
-0.31255 -1.1055 2.9012 3.1204
-0.29787 -1.1013 2.8916 3.1085
-0.28428 -1.101 2.892 3.1075
-0.27053 -1.0999 2.8905 3.1045
-0.25695 -1.0995 2.8908 3.1035
-0.2433 -1.0988 2.8901 3.1015
-0.22996 -1.0995 2.893 3.1035
-0.21646 -1.0995 2.8941 3.1035
-0.20276 -1.0985 2.8923 3.1005
-0.18926 -1.0985 2.8932 3.1005
-0.17576 -1.0985 2.894 3.1005
-0.16199 -1.0967 2.8901 3.0954
-0.14875 -1.0985 2.8955 3.1004
-0.13523 -1.0985 2.8962 3.1004
-0.12148 -1.0963 2.8912 3.0944
-0.10813 -1.0977 2.8954 3.0984
-0.09462 -1.0977 2.8959 3.0984
-0.081002 -1.0963 2.8926 3.0944
-0.067461 -1.0956 2.8911 3.0924
-0.05397 -1.0956 2.8913 3.0924
-0.040466 -1.0953 2.8906 3.0914
-0.026943 -1.0938 2.887 3.0874
-0.013489 -1.0953 2.8909 3.0914
0 -1.0963 2.8937 3.0944
0.013502 -1.0963 2.8937 3.0944
0.027003 -1.0963 2.8936 3.0944
0.040531 -1.097 2.8953 3.0964
0.054039 -1.097 2.8951 3.0964
0.067591 -1.0977 2.8967 3.0984
0.081027 -1.0967 2.8935 3.0954
0.094588 -1.0974 2.895 3.0974
0.10803 -1.0967 2.8926 3.0954
0.1216 -1.0974 2.894 3.0974
0.1351 -1.0974 2.8934 3.0974
0.14879 -1.0988 2.8965 3.1014
0.16236 -1.0992 2.8967 3.1025
0.1761 -1.1006 2.8996 3.1065
0.18951 -1.0999 2.8969 3.1045
0.20289 -1.0992 2.8941 3.1025
0.21639 -1.0992 2.8931 3.1025
0.22989 -1.0992 2.8921 3.1025
0.24338 -1.0992 2.891 3.1025
0.25645 -1.0974 2.8852 3.0975
0.26991 -1.0974 2.884 3.0975
0.28337 -1.0974 2.8827 3.0975
0.2972 -1.0988 2.8851 3.1015
0.31156 -1.102 2.892 3.1105
0.32537 -1.1031 2.8933 3.1135
0.33928 -1.1045 2.8954 3.1174
0.35234 -1.103 2.89 3.1134
0.36582 -1.103 2.8884 3.1134
0.37929 -1.1031 2.8866 3.1134
0.39402 -1.1066 2.8941 3.1234
0.40752 -1.1066 2.8923 3.1234
0.42142 -1.1077 2.8931 3.1264
0.43519 -1.1084 2.893 3.1284
0.44869 -1.1084 2.8909 3.1285
0.46217 -1.1084 2.8888 3.1285
0.47656 -1.1105 2.8922 3.1345
0.49005 -1.1105 2.8899 3.1345
0.50353 -1.1105 2.8876 3.1345
0.517 -1.1105 2.8852 3.1345
0.53046 -1.1105 2.8828 3.1345
0.54391 -1.1105 2.8803 3.1345
0.55735 -1.1105 2.8778 3.1346
0.57332 -1.1155 2.888 3.1486
0.5862 -1.1144 2.8824 3.1454
0.59984 -1.1148 2.8806 3.1465
0.61445 -1.1169 2.8832 3.1525
0.62889 -1.1187 2.8849 3.1575
0.64235 -1.1187 2.882 3.1575
0.65683 -1.1205 2.8835 3.1625
0.67092 -1.1215 2.8832 3.1655
0.68458 -1.1219 2.8809 3.1665
0.6989 -1.1233 2.8814 3.1706
0.71369 -1.1254 2.8835 3.1766
0.72714 -1.1254 2.8802 3.1766
0.74081 -1.1258 2.8777 3.1776
0.75637 -1.129 2.8823 3.1866
0.77147 -1.1314 2.885 3.1935
0.78517 -1.1318 2.8823 3.1945
0.80012 -1.1339 2.884 3.2005
0.81612 -1.1375 2.8893 3.2106
0.82985 -1.1378 2.8863 3.2116
0.84331 -1.1378 2.8825 3.2116
0.85676 -1.1379 2.8785 3.2116
0.86775 -1.1347 2.8664 3.2026
0.87259 -1.1237 2.8347 3.1717
0.87381 -1.1085 2.7922 3.1287
0.85679 -1.0709 2.6937 3.0227
0.87219 -1.0744 2.6984 3.0326
0.86931 -1.0557 2.6473 2.9796
0.86627 -1.0372 2.5971 2.9276
0.85829 -1.0135 2.5337 2.8607
0.8698 -1.0132 2.5288 2.8597
0.87605 -1.0068 2.5088 2.8417
0.88776 -1.0068 2.5047 2.8417
0.90007 -1.0075 2.5023 2.8438
0.91174 -1.0075 2.4981 2.8438
0.93147 -1.0163 2.5157 2.8687
0.94387 -1.0171 2.5131 2.8707
0.95592 -1.0174 2.5095 2.8717
0.96932 -1.0192 2.5094 2.8767
0.98955 -1.0281 2.5267 2.9018
1.0158 -1.043 2.5586 2.9438
1.1559 -1.173 2.8722 3.3108
1.2706 -1.2746 3.1152 3.5977
1.2944 -1.2839 3.1317 3.6237
1.3145 -1.2892 3.1386 3.6388
1.3302 -1.2903 3.1351 3.6418
1.3474 -1.2927 3.1348 3.6488
1.3631 -1.2938 3.1311 3.6519
1.3683 -1.2849 3.1032 3.6267
1.3839 -1.286 3.0994 3.6298
1.4022 -1.2896 3.1015 3.6398
1.4167 -1.2896 3.0949 3.6398
1.4327 -1.291 3.0917 3.6439
1.4507 -1.2942 3.0926 3.6529
1.4466 -1.2778 3.0468 3.6068
1.4673 -1.2835 3.0536 3.6228
1.4848 -1.2864 3.0535 3.6309
1.4995 -1.2867 3.0474 3.6319
1.5149 -1.2878 3.0429 3.6349
1.5295 -1.2882 3.0367 3.636
1.548 -1.2917 3.0378 3.646
1.5492 -1.2811 3.0056 3.6159
1.5697 -1.2864 3.0108 3.6309
1.5877 -1.2896 3.0109 3.64
1.5806 -1.2726 2.9638 3.5919
1.6166 -1.2903 2.9976 3.642
1.6342 -1.2932 2.9966 3.65
1.6319 -1.2804 2.9594 3.6139
1.6493 -1.2832 2.9583 3.622
1.6645 -1.2843 2.9531 3.625
1.6857 -1.29 2.9583 3.641
1.7013 -1.2914 2.9537 3.6451
1.6986 -1.279 2.9174 3.61
1.7212 -1.2857 2.9247 3.629
1.7368 -1.2872 2.9199 3.6331
1.7514 -1.2879 2.9134 3.6351
1.7688 -1.2907 2.9117 3.6432
1.7652 -1.2783 2.8754 3.6081
1.787 -1.2843 2.8807 3.6251
1.8069 -1.289 2.8826 3.6381
1.8249 -1.2922 2.8813 3.6472
1.8222 -1.2808 2.8475 3.6151
1.838 -1.2826 2.8429 3.6202
1.8518 -1.283 2.8352 3.6212
1.866 -1.2837 2.8281 3.6232
1.8729 -1.2794 2.8099 3.6112
1.8907 -1.2826 2.8082 3.6202
1.9054 -1.2837 2.8017 3.6233
1.9233 -1.2869 2.7997 3.6323
1.9208 -1.2766 2.7684 3.6032
1.9471 -1.2855 2.7786 3.6283
1.9639 -1.288 2.7748 3.6353
1.9872 -1.2947 2.7801 3.6544
1.9815 -1.2826 2.745 3.6203
1.9987 -1.2855 2.7418 3.6283
2.0121 -1.2859 2.7332 3.6294
2.0248 -1.2859 2.7239 3.6294
2.0273 -1.2795 2.7008 3.6113
2.0416 -1.2805 2.6936 3.6144
2.0616 -1.2852 2.6938 3.6274
2.069 -1.282 2.6774 3.6184
2.0797 -1.2809 2.6655 3.6154
2.0945 -1.2823 2.6588 3.6194
2.1209 -1.2909 2.6666 3.6435
2.1116 -1.2777 2.6296 3.6064
2.1274 -1.2799 2.6241 3.6125
2.1545 -1.2887 2.6323 3.6375
2.1411 -1.2735 2.5912 3.5945
2.1693 -1.2831 2.6006 3.6215
2.1959 -1.2916 2.6076 3.6456
2.1935 -1.2831 2.5802 3.6215
2.2092 -1.2852 2.5743 3.6276
2.2154 -1.2819 2.5572 3.6181
2.2251 -1.2806 2.5444 3.6146
2.2407 -1.2828 2.5382 3.6206
2.2526 -1.2828 2.5278 3.6206
2.2693 -1.2856 2.5228 3.6286
2.2779 -1.2838 2.5087 3.6237
2.2763 -1.2764 2.4835 3.6026
2.2981 -1.2821 2.4839 3.6187
2.3132 -1.284 2.4769 3.6242
2.3263 -1.2849 2.4678 3.6267
2.3333 -1.2824 2.4522 3.6197
2.3447 -1.2824 2.4413 3.6197
2.3644 -1.2869 2.4389 3.6324
2.3825 -1.2906 2.4348 3.6428
2.4031 -1.2956 2.433 3.6569
2.423 -1.3002 2.4304 3.6699
nan nan nan -inf
nan nan nan -inf
nan nan nan -inf
nan nan nan -inf
nan nan nan -inf
nan nan nan -inf
nan nan nan -inf
nan nan nan -inf
nan nan nan -inf
nan nan nan -inf
nan nan nan -inf
nan nan nan -inf
nan nan nan -inf
nan nan nan -inf
nan nan nan -inf
nan nan nan -inf
nan nan nan -inf
nan nan nan -inf
nan nan nan -inf
nan nan nan -inf
nan nan nan -inf
nan nan nan -inf
nan nan nan -inf
nan nan nan -inf
nan nan nan -inf
nan nan nan -inf
nan nan nan -inf
nan nan nan -inf
nan nan nan -inf
nan nan nan -inf
nan nan nan -inf
nan nan nan -inf
nan nan nan -inf
nan nan nan -inf
nan nan nan -inf
nan nan nan -inf
nan nan nan -inf
nan nan nan -inf
nan nan nan -inf
nan nan nan -inf
nan nan nan -inf
nan nan nan -inf
nan nan nan -inf
nan nan nan -inf
nan nan nan -inf
nan nan nan -inf
nan nan nan -inf
nan nan nan -inf
nan nan nan -inf
nan nan nan -inf
nan nan nan -inf
nan nan nan -inf
nan nan nan -inf
nan nan nan -inf
nan nan nan -inf
nan nan nan -inf
nan nan nan -inf
nan nan nan -inf
nan nan nan -inf
-2.4652 -1.2891 2.4107 3.6811
-2.4445 -1.2842 2.4129 3.667
-2.4349 -1.2851 2.4259 3.6695
-2.4166 -1.2814 2.4302 3.659
-2.398 -1.2775 2.4341 3.6479
-2.3916 -1.2802 2.4502 3.6554
-2.3915 -1.2863 2.4731 3.6729
-2.3628 -1.277 2.4663 3.6464
-2.3574 -1.2803 2.4837 3.6559
-2.3509 -1.2831 2.5001 3.6638
-2.3411 -1.2842 2.5131 3.6668
-2.3243 -1.2813 2.5185 3.6588
-2.3081 -1.2789 2.5244 3.6518
-2.2913 -1.2761 2.5295 3.6438
-2.2663 -1.2687 2.5255 3.6227
-2.2571 -1.2701 2.5389 3.6268
-2.2309 -1.2621 2.5332 3.6037
-2.2053 -1.2542 2.5277 3.5812
-2.184 -1.2487 2.5269 3.5657
-2.1654 -1.2449 2.5292 3.5547
-2.1436 -1.2391 2.5275 3.5382
-2.1267 -1.2361 2.5314 3.5297
-2.1119 -1.2344 2.5376 3.5246
-2.0869 -1.2267 2.5315 3.5027
-2.0645 -1.2204 2.5282 3.4847
-2.0391 -1.2123 2.521 3.4616
-2.0226 -1.2095 2.5245 3.4536
-2.0056 -1.2063 2.5274 3.4446
-1.9903 -1.2042 2.5322 3.4386
-1.9652 -1.1961 2.5245 3.4155
-1.9455 -1.1913 2.5232 3.4016
-1.9286 -1.1881 2.5255 3.3925
-1.9139 -1.1863 2.5307 3.3875
-1.8988 -1.1842 2.5351 3.3815
-1.8853 -1.1832 2.5417 3.3785
-1.8734 -1.1832 2.5504 3.3785
-1.8609 -1.1828 2.5583 3.3774
-1.861 -1.1905 2.5837 3.3995
-1.8212 -1.1726 2.5534 3.3483
-1.8352 -1.1895 2.5986 3.3964
-1.8188 -1.1866 2.601 3.3884
-1.8093 -1.1884 2.6133 3.3934
-1.8009 -1.1909 2.6271 3.4004
-1.7786 -1.1842 2.6207 3.3814
-1.7663 -1.1842 2.6289 3.3813
-1.7582 -1.187 2.6434 3.3894
-1.7516 -1.1908 2.6602 3.4004
-1.7361 -1.1887 2.6635 3.3943
-1.7145 -1.1824 2.6574 3.3763
-1.6995 -1.1806 2.6614 3.3712
-1.7067 -1.1943 2.7002 3.4103
-1.6841 -1.1873 2.6922 3.3903
-1.6711 -1.1869 2.6992 3.3892
-1.655 -1.1845 2.7013 3.3822
-1.6604 -1.1975 2.7387 3.4193
-1.6476 -1.1974 2.7464 3.4193
-1.6229 -1.1887 2.7339 3.3942
-1.6072 -1.1866 2.7365 3.3882
-1.5926 -1.1851 2.7407 3.3841
-1.5892 -1.1922 2.7644 3.4042
-1.573 -1.1897 2.7661 3.3972
-1.5573 -1.1876 2.7684 3.3912
-1.5417 -1.1855 2.7707 3.3851
-1.5278 -1.1848 2.7762 3.3831
-1.5319 -1.1981 2.8146 3.4212
-1.5179 -1.1974 2.8201 3.4191
-1.4933 -1.1883 2.8056 3.3931
-1.4776 -1.1862 2.8075 3.3871
-1.464 -1.1858 2.8135 3.386
-1.45 -1.1851 2.8186 3.384
-1.4488 -1.1949 2.8488 3.4121
-1.4355 -1.1949 2.8555 3.4121
-1.4222 -1.1949 2.8621 3.412
-1.4047 -1.1914 2.8602 3.402
-1.3901 -1.1903 2.8642 3.399
-1.3735 -1.1875 2.8639 3.3909
-1.3545 -1.1826 2.8584 3.3769
-1.3611 -1.2002 2.9072 3.4271
-1.3377 -1.1914 2.8922 3.402
-1.3234 -1.1907 2.8967 3.4
-1.3099 -1.1907 2.9028 3.4
-1.2926 -1.1872 2.9003 3.3899
-1.2783 -1.1865 2.9045 3.3879
-1.2767 -1.1977 2.938 3.42
-1.2612 -1.1959 2.9396 3.415
-1.2401 -1.1889 2.9282 3.3949
-1.2261 -1.1886 2.933 3.3939
-1.2114 -1.1875 2.9361 3.3909
-1.1962 -1.1861 2.9382 3.3869
-1.1794 -1.1829 2.9359 3.3778
-1.1516 -1.1686 2.9058 3.3369
-1.1377 -1.1683 2.9102 3.3359
-1.1231 -1.1672 2.9128 3.3329
-1.1072 -1.1647 2.9119 3.3259
-1.0926 -1.1637 2.9143 3.3228
-1.078 -1.1626 2.9167 3.3198
-1.0628 -1.1609 2.9173 3.3148
-1.0442 -1.1553 2.9081 3.2988
-1.0266 -1.1507 2.9015 3.2859
-1.0124 -1.15 2.9045 3.2839
-0.99735 -1.1483 2.9047 3.2788
-0.9823 -1.1465 2.9049 3.2738
-0.96816 -1.1458 2.9076 3.2718
-0.9546 -1.1458 2.9121 3.2718
-0.93641 -1.1402 2.9022 3.2557
-0.92118 -1.1381 2.9012 3.2497
-0.90545 -1.1353 2.8984 3.2418
-0.89193 -1.1353 2.9026 3.2418
-0.87813 -1.135 2.9058 3.2408
-0.86378 -1.1339 2.9071 3.2378
-0.84969 -1.1332 2.9093 3.2358
-0.83432 -1.1307 2.9069 3.2287
-0.81949 -1.129 2.9062 3.2237
-0.80269 -1.1244 2.8983 3.2107
-0.78868 -1.1237 2.9001 3.2087
-0.77371 -1.1216 2.8983 3.2027
-0.7602 -1.1216 2.9019 3.2026
-0.74623 -1.1209 2.9037 3.2008
-0.73247 -1.1206 2.9062 3.1997
-0.71892 -1.1206 2.9096 3.1997
-0.70469 -1.1195 2.9102 3.1967
-0.68701 -1.1129 2.8961 3.1777
-0.67245 -1.1111 2.8947 3.1727
-0.65875 -1.1107 2.8968 3.1717
-0.64504 -1.1104 2.899 3.1706
-0.63153 -1.1104 2.9019 3.1706
-0.6178 -1.11 2.9039 3.1696
-0.60255 -1.1069 2.8985 3.1606
-0.58792 -1.1048 2.8957 3.1546
-0.5739 -1.1038 2.8958 3.1517
-0.55916 -1.1013 2.892 3.1447
-0.54481 -1.0995 2.89 3.1397
-0.53219 -1.1013 2.8971 3.1447
-0.51786 -1.0995 2.8949 3.1397
-0.50405 -1.0988 2.8954 3.1376
-0.48961 -1.0967 2.8922 3.1316
-0.47674 -1.0981 2.8981 3.1356
-0.46264 -1.0967 2.8966 3.1316
-0.44886 -1.096 2.8968 3.1296
-0.43494 -1.095 2.8961 3.1266
-0.42131 -1.0946 2.8972 3.1256
-0.40702 -1.0925 2.8935 3.1196
-0.39354 -1.0925 2.8954 3.1196
-0.38005 -1.0925 2.8972 3.1196
-0.36654 -1.0925 2.8989 3.1195
-0.35304 -1.0925 2.9006 3.1195
-0.33985 -1.0935 2.905 3.1225
-0.32631 -1.0935 2.9065 3.1225
-0.31277 -1.0935 2.908 3.1225
-0.2976 -1.0876 2.8937 3.1057
-0.28412 -1.0876 2.8951 3.1057
-0.27053 -1.0872 2.8953 3.1045
-0.25713 -1.0876 2.8976 3.1056
-0.24316 -1.0855 2.8931 3.0996
-0.22938 -1.0841 2.8905 3.0956
-0.21529 -1.081 2.8831 3.0866
-0.20185 -1.081 2.8841 3.0866
-0.18842 -1.081 2.885 3.0866
-0.17543 -1.0838 2.8933 3.0946
-0.16195 -1.0838 2.8941 3.0946
-0.14847 -1.0838 2.8948 3.0946
-0.13498 -1.0838 2.8955 3.0946
-0.12121 -1.0813 2.8895 3.0876
-0.10775 -1.0813 2.8901 3.0876
-0.094288 -1.0813 2.8905 3.0876
-0.080823 -1.0813 2.8909 3.0876
-0.067355 -1.0813 2.8913 3.0876
-0.053711 -1.0778 2.8822 3.0776
-0.040285 -1.0778 2.8824 3.0776
-0.026953 -1.0816 2.8929 3.0886
-0.013451 -1.0795 2.8873 3.0826
0 -1.0816 2.893 3.0886
0.013476 -1.0816 2.893 3.0886
0.026952 -1.0816 2.8929 3.0886
0.040428 -1.0816 2.8927 3.0886
0.053903 -1.0816 2.8925 3.0886
0.067376 -1.0816 2.8922 3.0886
0.0809 -1.0823 2.8937 3.0906
0.09441 -1.0827 2.8943 3.0916
0.10789 -1.0827 2.8938 3.0916
0.12137 -1.0827 2.8933 3.0916
0.13485 -1.0827 2.8927 3.0916
0.14832 -1.0827 2.892 3.0916
0.1619 -1.0834 2.8932 3.0936
0.17537 -1.0834 2.8924 3.0936
0.18884 -1.0834 2.8915 3.0936
0.20218 -1.0827 2.8888 3.0916
0.21564 -1.0827 2.8878 3.0916
0.22909 -1.0827 2.8868 3.0916
0.24253 -1.0827 2.8857 3.0916
0.25655 -1.0852 2.891 3.0986
0.26992 -1.0848 2.8887 3.0975
0.28337 -1.0848 2.8875 3.0975
0.2972 -1.0862 2.8898 3.1015
0.31156 -1.0893 2.8968 3.1105
0.32537 -1.0904 2.8981 3.1135
0.33887 -1.0904 2.8966 3.1135
0.35236 -1.0904 2.895 3.1135
0.36643 -1.0921 2.898 3.1185
0.37907 -1.0897 2.8897 3.1116
0.39253 -1.0897 2.888 3.1116
0.40624 -1.0904 2.888 3.1136
0.41996 -1.0911 2.8879 3.1156
0.43341 -1.0911 2.8859 3.1156
0.44714 -1.0918 2.8857 3.1176
0.46058 -1.0918 2.8836 3.1176
0.474 -1.0918 2.8815 3.1176
0.48821 -1.0936 2.8839 3.1226
0.50212 -1.0946 2.8843 3.1256
0.51654 -1.0967 2.8875 3.1317
0.5305 -1.0978 2.8878 3.1347
0.54395 -1.0978 2.8853 3.1347
0.55774 -1.0985 2.8846 3.1367
0.57117 -1.0985 2.882 3.1367
0.58718 -1.1034 2.8921 3.1506
0.60083 -1.1037 2.8902 3.1516
0.61488 -1.1048 2.8902 3.1546
0.62933 -1.1065 2.8918 3.1596
0.6428 -1.1065 2.8889 3.1596
0.65626 -1.1065 2.8859 3.1597
0.6697 -1.1065 2.8828 3.1597
0.68463 -1.109 2.8861 3.1667
0.69807 -1.109 2.8828 3.1667
0.7133 -1.1118 2.8869 3.1747
0.7272 -1.1125 2.8853 3.1767
0.74064 -1.1125 2.8819 3.1768
0.75477 -1.1136 2.8812 3.1798
0.77009 -1.1163 2.8848 3.1877
0.78352 -1.1163 2.8812 3.1877
0.79719 -1.1167 2.8784 3.1887
0.81364 -1.1209 2.8855 3.2007
0.82992 -1.1248 2.8916 3.2117
0.84339 -1.1248 2.8877 3.2118
0.85684 -1.1248 2.8838 3.2118
0.86675 -1.1202 2.8681 3.1988
0.8713 -1.109 2.8354 3.1668
0.87221 -1.0936 2.792 3.1228
0.87185 -1.0771 2.7458 3.0757
0.8694 -1.0586 2.6945 3.0227
0.86823 -1.0421 2.6486 2.9758
0.85808 -1.0155 2.577 2.8998
0.86228 -1.0064 2.55 2.8738
0.86777 -0.99908 2.5273 2.8528
0.87862 -0.99804 2.5206 2.8499
0.88723 -0.99455 2.5077 2.8399
0.89796 -0.99351 2.5009 2.8369
0.91213 -0.99627 2.5037 2.8448
0.92379 -0.99627 2.4994 2.8448
0.94069 -1.0019 2.5091 2.8608
0.95538 -1.005 2.5126 2.8699
0.96742 -1.0054 2.509 2.8709
0.99002 -1.0166 2.5324 2.9029
1.0149 -1.0299 2.5609 2.9409
1.0268 -1.0299 2.5562 2.9409
1.2845 -1.2737 3.1551 3.6369
1.3128 -1.287 3.182 3.6749
1.3287 -1.288 3.1784 3.6779
1.3457 -1.2901 3.1774 3.6839
1.3627 -1.2923 3.1763 3.69
1.3801 -1.2947 3.176 3.697
1.3798 -1.2807 3.1351 3.6569
1.3978 -1.2838 3.1364 3.6659
1.4178 -1.2887 3.1418 3.68
1.4328 -1.2891 3.1361 3.681
1.4541 -1.2951 3.1438 3.698
1.4688 -1.2951 3.137 3.698
1.4661 -1.28 3.0937 3.6549
1.4829 -1.2821 3.0919 3.661
1.5067 -1.2902 3.1044 3.684
1.5224 -1.2912 3.0999 3.687
1.5393 -1.2933 3.0978 3.6931
1.5538 -1.2934 3.0906 3.6931
1.5439 -1.2733 3.0357 3.636
1.5718 -1.2846 3.0551 3.668
1.5868 -1.2853 3.0495 3.6701
1.6037 -1.2874 3.0471 3.6761
1.6179 -1.2874 3.0396 3.6761
1.6168 -1.2755 3.0039 3.642
1.6515 -1.2916 3.0343 3.6882
1.6502 -1.2797 2.9986 3.6541
1.6696 -1.2839 3.0007 3.6661
1.691 -1.2895 3.006 3.6821
1.7064 -1.2906 3.0006 3.6852
1.7241 -1.2934 2.9991 3.6932
1.7196 -1.2797 2.9594 3.6541
1.7415 -1.2857 2.9651 3.6712
1.7572 -1.2871 2.9602 3.6752
1.7724 -1.2881 2.9544 3.6782
1.7906 -1.2913 2.9534 3.6873
1.7925 -1.2829 2.9258 3.6632
1.8071 -1.2836 2.919 3.6652
1.8287 -1.2892 2.9233 3.6813
1.8463 -1.292 2.9211 3.6893
1.8551 -1.2887 2.905 3.6798
1.8617 -1.284 2.8856 3.6663
1.8762 -1.2847 2.8785 3.6683
1.8922 -1.2864 2.8737 3.6734
1.9048 -1.2859 2.8637 3.6718
1.9168 -1.285 2.8528 3.6693
1.9332 -1.2871 2.8486 3.6754
1.947 -1.2875 2.8403 3.6764
1.9541 -1.2835 2.8224 3.6649
1.9664 -1.2829 2.8121 3.6634
1.9811 -1.284 2.8052 3.6664
2.0051 -1.291 2.8112 3.6865
2.0022 -1.2809 2.7798 3.6574
2.0168 -1.2819 2.7727 3.6605
2.0325 -1.2837 2.7671 3.6655
2.0466 -1.2844 2.7591 3.6676
2.0431 -1.2742 2.7278 3.6385
2.0495 -1.2703 2.71 3.6274
2.0832 -1.2833 2.728 3.6645
2.0999 -1.2858 2.7235 3.6716
2.1033 -1.2802 2.7018 3.6555
2.1165 -1.2806 2.6928 3.6566
2.1337 -1.2834 2.6888 3.6646
2.1362 -1.2774 2.6664 3.6475
2.1563 -1.282 2.6659 3.6606
2.177 -1.2869 2.666 3.6747
2.1838 -1.2836 2.649 3.6651
2.1976 -1.2844 2.6406 3.6676
2.2129 -1.2862 2.6339 3.6727
2.2236 -1.2853 2.6218 3.6702
2.2264 -1.2799 2.6004 3.6547
2.2403 -1.281 2.5921 3.6577
2.2576 -1.2839 2.5877 3.6662
2.2681 -1.2831 2.5754 3.6637
2.2894 -1.2883 2.5753 3.6788
2.2905 -1.2822 2.5524 3.6613
2.3133 -1.2883 2.5539 3.6788
2.3176 -1.2841 2.5348 3.6668
2.3039 -1.2701 2.4964 3.6267
2.3399 -1.2834 2.5117 3.6648
2.3291 -1.2712 2.4769 3.6298
2.3522 -1.2775 2.4783 3.6478
2.3712 -1.2815 2.4751 3.6594
2.3987 -1.2901 2.4805 3.6839
2.4024 -1.2859 2.4613 3.6719
2.4125 -1.2852 2.4487 3.6699
2.4303 -1.2886 2.4439 3.6796
2.4522 -1.2942 2.4431 3.6955
2.4632 -1.294 2.4313 3.6951
2.4745 -1.294 2.4198 3.6951
2.4986 -1.3007 2.4207 3.7141
nan nan nan -inf
nan nan nan -inf
nan nan nan -inf
nan nan nan -inf
nan nan nan -inf
nan nan nan -inf
nan nan nan -inf
nan nan nan -inf
nan nan nan -inf
nan nan nan -inf
nan nan nan -inf
nan nan nan -inf
nan nan nan -inf
nan nan nan -inf
nan nan nan -inf
nan nan nan -inf
nan nan nan -inf
nan nan nan -inf
nan nan nan -inf
nan nan nan -inf
nan nan nan -inf
nan nan nan -inf
nan nan nan -inf
nan nan nan -inf
nan nan nan -inf
nan nan nan -inf
nan nan nan -inf
nan nan nan -inf
nan nan nan -inf
nan nan nan -inf
nan nan nan -inf
nan nan nan -inf
nan nan nan -inf
nan nan nan -inf
nan nan nan -inf
nan nan nan -inf
nan nan nan -inf
nan nan nan -inf
nan nan nan -inf
nan nan nan -inf
nan nan nan -inf
nan nan nan -inf
nan nan nan -inf
nan nan nan -inf
nan nan nan -inf
nan nan nan -inf
nan nan nan -inf
nan nan nan -inf
nan nan nan -inf
nan nan nan -inf
nan nan nan -inf
nan nan nan -inf
-2.5214 -1.2852 2.404 3.7133
-2.5074 -1.2838 2.413 3.7092
-2.4965 -1.284 2.425 3.7097
-2.4808 -1.2817 2.4323 3.7032
-2.4584 -1.2759 2.4327 3.6864
-2.4558 -1.2805 2.4529 3.6996
-2.4512 -1.2841 2.4713 3.7101
-2.44 -1.2843 2.4829 3.7105
-2.4268 -1.2834 2.4926 3.708
-2.4155 -1.2836 2.5042 3.7085
-2.4016 -1.2824 2.513 3.705
-2.384 -1.2792 2.518 3.696
-2.3652 -1.2754 2.5215 3.685
-2.3407 -1.2685 2.5187 3.665
