# .PCD v.6 - Point Cloud Data file format
FIELDS x y z range
SIZE 4 4 4 4
TYPE F F F F
COUNT 1 1 1 1
WIDTH 1657
HEIGHT 1
POINTS 1657
DATA ascii
-1.0551 0.42515 1.0767 1.5663
-1.0495 0.42489 1.0808 1.5653
-1.042 0.42381 1.0828 1.5613
-1.0343 0.42271 1.0847 1.5573
-1.0254 0.42107 1.0852 1.5513
-1.0199 0.42081 1.0891 1.5503
-1.0113 0.41931 1.0898 1.5447
-0.99881 0.41617 1.0862 1.5332
-0.98676 0.41319 1.0829 1.5222
-0.97988 0.41237 1.0852 1.5192
-0.97685 0.41317 1.0918 1.5221
-0.97254 0.41345 1.0969 1.5232
-0.97329 0.4159 1.1078 1.5322
-0.96629 0.41505 1.11 1.5291
-0.98075 0.42347 1.137 1.5601
-0.97935 0.42511 1.1458 1.5661
-0.98065 0.42795 1.1579 1.5766
-0.98309 0.43133 1.1715 1.589
-0.98148 0.43296 1.1804 1.595
-0.97735 0.43351 1.1864 1.5971
-0.98106 0.43757 1.2019 1.612
-0.97739 0.43837 1.2086 1.615
-1.0038 0.45276 1.2528 1.668
-1.6079 0.72936 2.0255 2.687
-1.6528 0.75403 2.1015 2.7779
-1.6486 0.75647 2.1158 2.7869
-1.6431 0.75838 2.1286 2.7939
-1.6334 0.75838 2.1361 2.7939
-1.6185 0.75595 2.1366 2.7849
-1.6081 0.75564 2.143 2.7838
-1.5996 0.75619 2.1518 2.7858
-1.5909 0.75673 2.1606 2.7878
-1.5936 0.76271 2.1849 2.8099
-1.5839 0.76283 2.1925 2.8103
-1.5742 0.76295 2.2 2.8107
-1.5643 0.76296 2.2071 2.8108
-1.5448 0.75835 2.2008 2.7938
-1.5316 0.75672 2.2031 2.7878
-1.5183 0.75508 2.2052 2.7817
-1.5044 0.75316 2.2064 2.7747
-1.4939 0.7529 2.2125 2.7737
-1.4828 0.75236 2.2176 2.7717
-1.4615 0.74666 2.2075 2.7507
-1.4489 0.74529 2.21 2.7457
-1.4372 0.74446 2.2141 2.7426
-1.4178 0.73958 2.206 2.7246
-1.4078 0.73958 2.2124 2.7247
-1.3967 0.73904 2.2172 2.7227
-1.3818 0.73645 2.2157 2.7131
-1.3669 0.73386 2.2141 2.7036
-1.3564 0.73359 2.2195 2.7026
-1.3463 0.73359 2.2256 2.7026
-1.3327 0.7317 2.2259 2.6956
-1.3113 0.72544 2.2128 2.6725
-1.2969 0.72298 2.2112 2.6635
-1.2849 0.7219 2.2138 2.6595
-1.2744 0.72163 2.2188 2.6585
-1.2643 0.72163 2.2245 2.6585
-1.2519 0.72028 2.2261 2.6535
-1.2331 0.71524 2.2161 2.635
-1.2237 0.71563 2.2229 2.6364
-1.2136 0.71564 2.2284 2.6364
-1.1998 0.71347 2.2271 2.6285
-1.1897 0.71347 2.2326 2.6285
-1.1729 0.7094 2.2252 2.6135
-1.1592 0.70722 2.2236 2.6054
-1.1491 0.7072 2.2288 2.6054
-1.139 0.7072 2.234 2.6054
-1.1288 0.70721 2.2391 2.6054
-1.1088 0.70097 2.2244 2.5824
-1.0974 0.70016 2.2268 2.5794
-1.0873 0.70016 2.2318 2.5794
-1.0813 0.70284 2.2453 2.5893
-1.0715 0.70311 2.251 2.5903
-1.0617 0.70338 2.2567 2.5913
-1.0645 0.71207 2.2895 2.6233
-1.0742 0.72565 2.338 2.6733
-1.0676 0.72837 2.3516 2.6833
-1.2609 0.86897 2.8113 3.2013
-1.4294 0.99516 3.2261 3.6662
-1.4155 0.9957 3.2343 3.6682
-1.4055 0.99896 3.2513 3.6802
-1.3907 0.99896 3.2576 3.6802
-1.3714 0.99571 3.2533 3.6682
-1.3515 0.99191 3.247 3.6542
-1.3342 0.99001 3.2469 3.6473
-1.3184 0.9892 3.2502 3.6443
-1.3011 0.98726 3.2498 3.6371
-1.2863 0.98726 3.2557 3.6371
-1.2712 0.98699 3.2606 3.6361
-1.2564 0.987 3.2663 3.6361
-1.242 0.98727 3.2729 3.6371
-1.2335 0.99243 3.2956 3.6562
-1.2256 0.99813 3.3201 3.6772
-1.2161 1.0027 3.341 3.6942
-1.2117 1.0117 3.3764 3.7272
-1.1989 1.0139 3.3891 3.7352
-1.1819 1.0125 3.3898 3.73
-1.3601 1.1805 3.9586 4.349
-1.4122 1.2421 4.1717 4.576
-1.3972 1.2457 4.1899 4.5891
-1.3782 1.2457 4.1962 4.5891
-1.3592 1.2457 4.2024 4.5891
-1.3399 1.2454 4.2076 4.5881
-1.315 1.24 4.1953 4.5681
-1.296 1.24 4.2012 4.5681
-1.2747 1.2378 4.1997 4.5601
-1.254 1.2362 4.1999 4.5541
-1.2338 1.2351 4.2019 4.5501
-1.2006 1.2207 4.1583 4.4969
-1.1644 1.2027 4.1026 4.431
-1.1256 1.1816 4.0355 4.353
-1.0798 1.1523 3.9403 4.245
-1.0619 1.1523 3.9452 4.245
-1.0441 1.1523 3.9499 4.245
-1.0445 1.1729 4.0254 4.321
-1.069 1.2217 4.198 4.501
-1.0668 1.2413 4.2701 4.573
-1.0474 1.2413 4.2749 4.573
-1.028 1.2413 4.2796 4.573
-1.0053 1.2372 4.2701 4.558
-0.98591 1.2372 4.2747 4.558
-0.96631 1.237 4.2782 4.557
-0.94691 1.237 4.2825 4.557
-0.92646 1.2356 4.282 4.552
-0.92136 1.2551 4.3538 4.6239
-0.90161 1.2551 4.358 4.6239
-0.8828 1.2565 4.3667 4.6289
-0.86299 1.2565 4.3707 4.6289
-0.84317 1.2565 4.3746 4.6289
-0.82226 1.2548 4.3727 4.6229
-0.79983 1.2508 4.3622 4.6079
-0.78004 1.2508 4.3657 4.6079
-0.76024 1.2508 4.3692 4.6079
-0.74075 1.2513 4.3745 4.6099
-0.72091 1.2513 4.3779 4.6099
-0.70106 1.2513 4.3811 4.6099
-0.6803 1.2497 4.3785 4.6039
-0.65858 1.2462 4.3692 4.5909
-0.63877 1.2462 4.3721 4.5909
-0.61894 1.2462 4.375 4.5909
-0.5991 1.2462 4.3777 4.5909
-0.5795 1.2467 4.3823 4.5929
-0.55963 1.2467 4.3849 4.5929
-0.53915 1.2453 4.3826 4.5879
-0.51928 1.2453 4.385 4.5879
-0.49929 1.2451 4.3864 4.5869
-0.47877 1.2435 4.3829 4.5809
-0.45889 1.2435 4.385 4.5809
-0.43834 1.2416 4.3803 4.5739
-0.42578 1.2632 4.4588 4.6538
-0.40556 1.2632 4.4607 4.6538
-0.38616 1.2659 4.472 4.6638
-0.36589 1.2659 4.4737 4.6638
-0.3456 1.2659 4.4754 4.6638
-0.32301 1.257 4.4452 4.6308
-0.30239 1.2551 4.4399 4.6238
-0.28165 1.2524 4.4316 4.6138
-0.26156 1.2524 4.4329 4.6138
-0.24198 1.2551 4.4436 4.6238
-0.22198 1.2559 4.4475 4.6268
-0.20181 1.2559 4.4485 4.6268
-0.18172 1.2564 4.4513 4.6288
-0.16168 1.2575 4.4559 4.6328
-0.14148 1.2575 4.4566 4.6328
-0.12127 1.2575 4.4572 4.6328
-0.10106 1.2575 4.4577 4.6328
-0.080819 1.257 4.4562 4.6308
-0.060603 1.2567 4.4556 4.6298
-0.040368 1.2556 4.4519 4.6258
-0.020185 1.2556 4.4521 4.6258
0 1.2556 4.4521 4.6258
0.020232 1.2586 4.4627 4.6368
0.040559 1.2616 4.4731 4.6478
0.060837 1.2616 4.4729 4.6478
0.080922 1.2586 4.462 4.6368
0.10067 1.2526 4.4404 4.6148
0.11952 1.2393 4.3927 4.5658
0.13204 1.1737 4.1594 4.3238
0.1451 1.1286 3.9991 4.1578
0.1575 1.089 3.858 4.0118
0.16762 1.0431 3.6947 3.8428
0.17794 1.0067 3.5651 3.7088
0.1874 0.97197 3.4412 3.5808
0.19738 0.9451 3.3452 3.4818
0.20528 0.9128 3.23 3.3628
0.21273 0.88294 3.1234 3.2528
0.21838 0.84982 3.0053 3.1308
0.22601 0.82788 2.9267 3.0499
0.23244 0.80422 2.8421 2.9628
0.24045 0.78825 2.7846 2.9039
0.24418 0.76056 2.6857 2.8019
0.25013 0.7421 2.6194 2.7339
0.25884 0.73314 2.5866 2.7009
0.27016 0.73206 2.5816 2.6969
0.27946 0.72581 2.5583 2.6739
0.29106 0.72581 2.557 2.6739
0.30231 0.725 2.5528 2.6709
0.3127 0.72228 2.5419 2.6609
0.32166 0.71658 2.5204 2.6399
0.33182 0.71387 2.5093 2.6299
0.34267 0.71278 2.504 2.6259
0.35375 0.71224 2.5005 2.6239
0.3648 0.71169 2.497 2.6219
0.37555 0.71061 2.4915 2.6179
0.38462 0.70653 2.4755 2.6029
0.3931 0.70165 2.4566 2.5849
0.40423 0.70165 2.4548 2.5849
0.41536 0.70165 2.4529 2.5849
0.42961 0.7068 2.469 2.6039
0.44452 0.71277 2.4879 2.6259
0.45892 0.71766 2.5029 2.6439
0.47346 0.72254 2.5178 2.6619
0.48688 0.72553 2.526 2.6729
0.50149 0.73014 2.5398 2.6899
0.513 0.73014 2.5375 2.6899
0.53428 0.74376 2.5825 2.74
0.55574 0.75705 2.6262 2.789
0.56927 0.75923 2.6311 2.797
0.58577 0.7652 2.6492 2.819
0.60307 0.77198 2.67 2.844
0.62057 0.77876 2.6907 2.869
0.64048 0.78826 2.7206 2.904
0.65281 0.78826 2.7177 2.904
0.66512 0.78826 2.7147 2.904
0.67742 0.78826 2.7116 2.904
0.68781 0.78609 2.7011 2.896
0.69763 0.78337 2.6886 2.886
0.70808 0.78147 2.6789 2.879
0.71772 0.77875 2.6663 2.869
0.72878 0.77767 2.6593 2.865
0.74031 0.77712 2.6542 2.863
0.7529 0.77771 2.6528 2.8651
0.75958 0.77228 2.6308 2.8451
0.77096 0.77173 2.6255 2.8431
0.78037 0.76929 2.6137 2.8341
0.79193 0.76902 2.6092 2.8331
0.80318 0.76847 2.6037 2.8311
0.81181 0.76548 2.59 2.8201
0.82237 0.7644 2.5826 2.8161
0.8317 0.76222 2.5715 2.8081
0.84305 0.76195 2.5668 2.8071
0.85163 0.75923 2.5538 2.7971
0.85949 0.75597 2.5389 2.785
0.8748 0.75927 2.5461 2.7972
0.88569 0.75873 2.5403 2.7952
0.89078 0.7533 2.5181 2.7752
0.89861 0.75031 2.504 2.7642
0.90929 0.74976 2.4981 2.7622
0.9206 0.74976 2.494 2.7622
0.9319 0.74976 2.4898 2.7622
0.9401 0.74731 2.4774 2.7531
0.94821 0.74487 2.465 2.7441
0.95832 0.74405 2.458 2.7411
0.97021 0.74464 2.4556 2.7433
0.98062 0.74409 2.4493 2.7413
0.9899 0.74273 2.4404 2.7363
0.99985 0.74192 2.4332 2.7333
1.0079 0.73974 2.4215 2.7252
1.0181 0.7392 2.4152 2.7232
1.0268 0.73756 2.4052 2.7172
1.0358 0.7362 2.3961 2.7122
1.048 0.73717 2.3945 2.7158
1.0602 0.73814 2.3929 2.7193
1.0632 0.73271 2.3705 2.6993
1.0692 0.72945 2.3551 2.6873
1.0762 0.727 2.3424 2.6783
1.0868 0.727 2.3374 2.6783
1.0974 0.727 2.3325 2.6783
1.1079 0.72699 2.3275 2.6783
1.1202 0.72812 2.326 2.6824
1.124 0.72377 2.3071 2.6664
1.1276 0.71942 2.2881 2.6504
1.138 0.71942 2.283 2.6504
1.1483 0.71942 2.2778 2.6504
1.1586 0.71942 2.2725 2.6504
1.1671 0.71833 2.2638 2.6464
1.1792 0.71945 2.2621 2.6505
1.189 0.71918 2.2558 2.6495
1.1992 0.71917 2.2504 2.6495
1.2094 0.71917 2.2449 2.6495
1.2136 0.71564 2.2284 2.6364
1.2232 0.71536 2.222 2.6354
1.2331 0.71524 2.2161 2.635
1.2405 0.71376 2.2059 2.6295
1.2505 0.71376 2.2003 2.6295
1.2605 0.71376 2.1946 2.6295
1.2704 0.71375 2.1888 2.6295
1.2803 0.71375 2.183 2.6295
1.2838 0.71024 2.1665 2.6165
1.2922 0.70944 2.1582 2.6136
1.3025 0.70971 2.1531 2.6146
1.3122 0.7097 2.1472 2.6146
1.3219 0.7097 2.1412 2.6146
1.3245 0.70589 2.1238 2.6006
1.3388 0.70837 2.1252 2.6097
1.3484 0.70837 2.1191 2.6097
1.3543 0.70646 2.1072 2.6026
1.3639 0.70646 2.1011 2.6026
1.3697 0.70456 2.0892 2.5956
1.3829 0.70649 2.0887 2.6027
1.3924 0.70648 2.0824 2.6027
1.4018 0.70648 2.0761 2.6027
1.403 0.7024 2.0577 2.5877
1.4123 0.7024 2.0513 2.5877
1.4222 0.70271 2.0458 2.5888
1.4265 0.70026 2.0322 2.5798
1.4357 0.70025 2.0257 2.5798
1.4465 0.70106 2.0215 2.5828
1.4591 0.70269 2.0196 2.5887
1.4671 0.70218 2.0115 2.5869
1.4745 0.70136 2.0025 2.5838
1.4836 0.70136 1.9958 2.5838
1.4926 0.70135 1.9891 2.5838
1.4993 0.70028 1.9792 2.5799
1.5101 0.70111 1.9748 2.5829
1.5149 0.69921 1.9626 2.5759
1.5231 0.69893 1.9549 2.5749
1.5302 0.69811 1.9457 2.5719
1.5445 0.70059 1.9456 2.581
1.5533 0.70058 1.9386 2.581
1.562 0.70058 1.9315 2.581
1.5707 0.70057 1.9244 2.5809
1.5776 0.69977 1.915 2.578
1.5845 0.69897 1.9057 2.575
1.5943 0.69951 1.8999 2.577
1.5967 0.69679 1.8853 2.567
1.6122 0.69981 1.8862 2.5781
1.6207 0.6998 1.8789 2.5781
1.6279 0.69925 1.87 2.5761
1.6361 0.69913 1.8623 2.5756
1.6442 0.699 1.8545 2.5752
1.6578 0.70117 1.8528 2.5831
1.6661 0.70116 1.8452 2.5831
1.6745 0.70117 1.8377 2.5832
1.6828 0.70119 1.8301 2.5832
1.6911 0.70118 1.8225 2.5832
1.6984 0.70078 1.8137 2.5817
1.6997 0.69794 1.7987 2.5713
1.7078 0.69794 1.791 2.5712
1.7186 0.69903 1.786 2.5753
1.7239 0.69792 1.7754 2.5712
1.7408 0.70149 1.7766 2.5843
1.7488 0.70148 1.7686 2.5843
1.7592 0.70244 1.7631 2.5878
1.7683 0.70286 1.7561 2.5894
1.7741 0.70204 1.7461 2.5863
1.7841 0.70286 1.74 2.5894
1.7969 0.70477 1.7367 2.5964
1.8047 0.70476 1.7285 2.5964
1.8083 0.70315 1.7163 2.5904
1.8098 0.70071 1.7022 2.5815
1.8175 0.70071 1.694 2.5814
1.828 0.7018 1.6883 2.5855
1.8385 0.7029 1.6827 2.5895
1.8461 0.70289 1.6743 2.5895
1.8566 0.70398 1.6685 2.5935
1.867 0.70508 1.6626 2.5975
1.8767 0.7059 1.6561 2.6006
1.8828 0.70537 1.6463 2.5986
1.8822 0.70237 1.6308 2.5876
1.8699 0.69505 1.6053 2.5606
1.8258 0.67606 1.5532 2.4906
1.767 0.65177 1.4894 2.4012
1.769 0.65002 1.4774 2.3947
nan nan nan -inf
nan nan nan -inf
nan nan nan -inf
nan nan nan -inf
nan nan nan -inf
nan nan nan -inf
nan nan nan -inf
nan nan nan -inf
nan nan nan -inf
nan nan nan -inf
nan nan nan -inf
nan nan nan -inf
-1.2463 0.46877 1.0579 1.7007
-1.2474 0.471 1.0686 1.7088
-1.2411 0.47046 1.0731 1.7068
-1.2312 0.46852 1.0742 1.6998
-1.2176 0.46521 1.0722 1.6878
-1.2059 0.46258 1.0716 1.6782
-1.1906 0.45858 1.0677 1.6637
-1.1843 0.45803 1.0719 1.6617
-1.1748 0.45623 1.073 1.6552
-1.1632 0.45361 1.0721 1.6457
-1.153 0.45153 1.0724 1.6381
-1.1394 0.44808 1.0694 1.6256
-1.1324 0.44726 1.0726 1.6226
-1.1261 0.44669 1.0764 1.6206
-1.1115 0.44282 1.0721 1.6065
-1.1066 0.44283 1.0772 1.6066
-1.0983 0.44146 1.0788 1.6016
-1.0851 0.43812 1.0756 1.5895
-1.0776 0.43702 1.0778 1.5855
-1.0713 0.43648 1.0813 1.5835
-1.0654 0.43605 1.0851 1.582
-1.0567 0.43453 1.0862 1.5764
-1.0411 0.43012 1.0799 1.5605
-1.0336 0.42903 1.0818 1.5565
-1.0319 0.43038 1.0899 1.5614
-1.025 0.42956 1.0925 1.5584
-1.0161 0.42791 1.093 1.5524
-1.0049 0.42528 1.0908 1.5429
-0.99504 0.4232 1.09 1.5354
-0.97849 0.41825 1.0817 1.5174
-0.97418 0.41851 1.0868 1.5183
-0.96985 0.41877 1.0919 1.5193
-0.9649 0.41878 1.0963 1.5193
-0.97094 0.42359 1.1133 1.5368
-0.97245 0.42647 1.1253 1.5472
-0.9786 0.43144 1.1429 1.5653
-0.97901 0.43393 1.1539 1.5743
-0.97683 0.43529 1.162 1.5792
-0.9746 0.43666 1.1701 1.5842
-0.98091 0.4419 1.1886 1.6032
-0.98221 0.44494 1.2013 1.6142
-0.98152 0.44711 1.2116 1.6221
-1.0019 0.45897 1.2483 1.6651
-1.5861 0.73075 1.9947 2.6511
-1.6585 0.7685 2.1053 2.7881
-1.6477 0.76794 2.1112 2.786
-1.6381 0.76794 2.1187 2.7861
-1.6285 0.76795 2.1261 2.7861
-1.6189 0.76795 2.1335 2.7861
-1.6085 0.76764 2.14 2.785
-1.5988 0.76765 2.1473 2.785
-1.589 0.76765 2.1545 2.785
-1.59 0.77289 2.1765 2.804
-1.5869 0.7762 2.193 2.816
-1.5757 0.77562 2.1985 2.8139
-1.568 0.77672 2.2088 2.8179
-1.5579 0.77673 2.2159 2.8179
-1.5407 0.77315 2.2127 2.8049
-1.5203 0.76792 2.2047 2.786
-1.5032 0.7643 2.2011 2.7728
-1.4878 0.76154 2.2 2.7628
-1.4746 0.75989 2.2019 2.7569
-1.463 0.75907 2.2062 2.7539
-1.4525 0.7588 2.212 2.7529
-1.435 0.75491 2.2072 2.7388
-1.4239 0.75436 2.2121 2.7368
-1.4113 0.75299 2.2145 2.7318
-1.3966 0.75051 2.2136 2.7228
-1.3855 0.74996 2.2183 2.7208
-1.3759 0.7502 2.2253 2.7217
-1.3588 0.74635 2.22 2.7077
-1.3437 0.7436 2.2179 2.6977
-1.3326 0.74305 2.2224 2.6957
-1.3216 0.7425 2.2268 2.6938
-1.3048 0.73876 2.2215 2.6802
-1.2868 0.7342 2.2136 2.6636
-1.2767 0.7342 2.2195 2.6637
-1.2638 0.73255 2.2202 2.6577
-1.2508 0.7309 2.2209 2.6517
-1.238 0.72925 2.2216 2.6457
-1.2222 0.72591 2.217 2.6336
-1.2122 0.72591 2.2225 2.6336
-1.2021 0.72592 2.228 2.6336
-1.1919 0.72592 2.2334 2.6336
-1.1805 0.7251 2.2363 2.6306
-1.1685 0.724 2.2382 2.6266
-1.1508 0.7193 2.2289 2.6096
-1.1376 0.71735 2.2281 2.6025
-1.1275 0.71735 2.2332 2.6025
-1.1148 0.7157 2.2332 2.5965
-1.0999 0.71267 2.2287 2.5855
-1.0835 0.70854 2.2208 2.5706
-1.0753 0.70977 2.2295 2.575
-1.069 0.71237 2.2425 2.5844
-1.0728 0.72174 2.277 2.6184
-1.073 0.72891 2.3045 2.6445
-1.0714 0.73498 2.3285 2.6665
-1.0823 0.74987 2.3806 2.7205
-1.1664 0.8163 2.5969 2.9615
-1.4294 1.0106 3.2215 3.6664
-1.4128 1.0092 3.2235 3.6614
-1.4035 1.0131 3.2423 3.6754
-1.3876 1.0122 3.2459 3.6724
-1.3729 1.0122 3.2522 3.6724
-1.3526 1.0081 3.2451 3.6574
-1.3367 1.0073 3.2486 3.6544
-1.3198 1.0056 3.2493 3.6484
-1.3018 1.0031 3.2471 3.6394
-1.2817 0.99899 3.2395 3.6243
-1.2614 0.99458 3.231 3.6083
-1.2467 0.99458 3.2367 3.6083
-1.232 0.99459 3.2423 3.6083
-1.2244 1.0004 3.2668 3.6293
-1.2139 1.004 3.2841 3.6423
-1.2098 1.0131 3.3194 3.6753
-1.1977 1.0155 3.333 3.6843
-1.1912 1.023 3.3628 3.7114
-1.1873 1.0329 3.4007 3.7472
-1.1944 1.0527 3.4715 3.8192
-1.1786 1.0527 3.4769 3.8192
-1.3497 1.222 4.0421 4.4332
-1.3314 1.222 4.0482 4.4332
-1.3234 1.2316 4.0862 4.4682
-1.3048 1.2316 4.0922 4.4682
-1.2862 1.2316 4.098 4.4682
-1.273 1.2369 4.1213 4.4873
-1.256 1.2385 4.1326 4.4933
-1.2372 1.2385 4.1382 4.4933
-1.2168 1.2369 4.1383 4.4873
-1.2142 1.2536 4.1999 4.5481
-1.1909 1.2492 4.1906 4.5321
-1.168 1.2451 4.1821 4.5171
-1.1216 1.2153 4.0872 4.4091
-1.0712 1.1803 3.9744 4.2821
-1.0532 1.1803 3.9793 4.2821
-1.0351 1.1803 3.984 4.2821
-1.0355 1.2018 4.0613 4.3602
-1.0425 1.2319 4.1676 4.4692
-1.0314 1.2412 4.2041 4.5032
-1.0123 1.2412 4.2087 4.5032
-0.99316 1.2412 4.2133 4.5032
-0.97143 1.2379 4.2065 4.4912
-0.95021 1.2352 4.2015 4.4812
-0.93113 1.2352 4.2058 4.4812
-0.92645 1.2547 4.2765 4.552
-0.90583 1.2531 4.275 4.546
-0.88642 1.2531 4.2791 4.546
-0.86718 1.2533 4.284 4.547
-0.84772 1.2533 4.2879 4.547
-0.82807 1.2531 4.2908 4.546
-0.80859 1.2531 4.2945 4.5461
-0.7877 1.2509 4.2906 4.5381
-0.76703 1.2489 4.2875 4.5311
-0.74756 1.2489 4.2909 4.5311
-0.72807 1.2489 4.2943 4.5311
-0.70873 1.2492 4.2985 4.5321
-0.68921 1.2492 4.3016 4.5321
-0.66968 1.2492 4.3047 4.5321
-0.64755 1.2442 4.2906 4.5141
-0.62807 1.2442 4.2935 4.5141
-0.60858 1.2443 4.2963 4.5141
-0.58998 1.2462 4.3057 4.5211
-0.57043 1.2462 4.3084 4.5211
-0.55087 1.2462 4.3109 4.5211
-0.53024 1.2437 4.3048 4.5121
-0.50979 1.2415 4.2995 4.5041
-0.49027 1.2415 4.3018 4.5041
-0.47074 1.2415 4.304 4.5041
-0.45889 1.2627 4.3795 4.5809
-0.43834 1.2607 4.3748 4.5739
-0.41793 1.2591 4.3711 4.5679
-0.39808 1.2591 4.3729 4.5679
-0.37781 1.2577 4.3699 4.5629
-0.35797 1.2577 4.3716 4.5629
-0.33813 1.2577 4.3731 4.5629
-0.31716 1.2533 4.3593 4.5469
-0.29737 1.2533 4.3607 4.5469
-0.27751 1.253 4.361 4.546
-0.25715 1.2503 4.3526 4.536
-0.23791 1.253 4.3634 4.546
-0.21844 1.255 4.3711 4.553
-0.19855 1.2547 4.3711 4.552
-0.17871 1.2547 4.372 4.552
-0.15886 1.2547 4.3727 4.552
-0.13901 1.2547 4.3734 4.552
-0.11916 1.2547 4.374 4.552
-0.099322 1.255 4.3755 4.553
-0.079495 1.2555 4.3778 4.555
-0.059623 1.2555 4.3781 4.555
-0.039732 1.255 4.3764 4.553
-0.019863 1.2547 4.3756 4.552
0 1.2547 4.3756 4.552
0.019861 1.2547 4.3756 4.552
0.039836 1.2583 4.3879 4.565
0.059753 1.2583 4.3877 4.565
0.079669 1.2583 4.3874 4.565
0.099277 1.2544 4.3735 4.551
0.11866 1.2495 4.3557 4.533
0.13321 1.2023 4.1909 4.362
0.14507 1.1458 3.9933 4.157
0.15703 1.1025 3.8418 4
0.16758 1.059 3.6893 3.842
0.17684 1.016 3.5388 3.686
0.18714 0.98567 3.4323 3.576
0.19666 0.95617 3.3288 3.469
0.2048 0.92475 3.2185 3.355
0.21307 0.89801 3.1245 3.2579
0.21971 0.86824 3.0199 3.1499
0.22601 0.84068 2.9231 3.0499
0.23284 0.81808 2.8435 2.9679
0.23963 0.79773 2.7717 2.8941
0.24418 0.77232 2.6823 2.8019
0.24923 0.75087 2.6067 2.7241
0.25972 0.74701 2.5921 2.7101
0.27108 0.7459 2.5871 2.7061
0.28157 0.7426 2.5744 2.6941
0.29249 0.74067 2.5664 2.6871
0.30119 0.7335 2.5402 2.6611
0.31225 0.73239 2.535 2.6571
0.32339 0.73157 2.5307 2.6541
0.33323 0.72798 2.5168 2.6411
0.34426 0.72716 2.5124 2.6381
0.35431 0.7244 2.5013 2.6281
0.36441 0.72192 2.4911 2.6191
0.37528 0.72109 2.4866 2.6161
0.38553 0.71916 2.4782 2.6091
0.39571 0.71723 2.4698 2.6021
0.4066 0.71668 2.466 2.6001
0.41779 0.71667 2.4642 2.6001
0.42897 0.71667 2.4622 2.6001
0.44336 0.72191 2.4783 2.6191
0.45998 0.73045 2.5055 2.6501
0.47829 0.7412 2.5402 2.689
0.49091 0.74285 2.5437 2.695
0.50394 0.74506 2.549 2.703
0.52008 0.75167 2.5693 2.727
0.53174 0.75167 2.5669 2.727
0.55417 0.7666 2.6154 2.7812
0.5695 0.77129 2.6288 2.7982
0.58641 0.7779 2.6487 2.8222
0.60267 0.78341 2.6648 2.8422
0.62341 0.79444 2.6995 2.8822
0.63874 0.79829 2.7097 2.8962
0.65328 0.80105 2.7161 2.9062
0.6656 0.80105 2.7131 2.9062
0.67791 0.80105 2.7101 2.9062
0.68735 0.79774 2.6958 2.8942
0.69644 0.79415 2.6805 2.8811
0.70811 0.7936 2.6755 2.8791
0.71924 0.79249 2.6685 2.8751
0.73135 0.79249 2.6652 2.8751
0.74137 0.79029 2.6545 2.8671
0.75288 0.78973 2.6492 2.8651
0.7596 0.78426 2.6275 2.8453
0.77097 0.78371 2.6221 2.8433
0.78094 0.78178 2.6122 2.8363
0.79279 0.78178 2.6086 2.8363
0.80462 0.78178 2.6049 2.8362
0.81614 0.7815 2.6003 2.8352
0.82268 0.77654 2.5801 2.8172
0.83112 0.7735 2.5663 2.8062
0.84216 0.77295 2.5607 2.8042
0.85286 0.77212 2.5541 2.8012
0.86444 0.77212 2.5502 2.8012
0.87449 0.77078 2.5418 2.7964
0.88222 0.76747 2.5269 2.7844
0.88886 0.76333 2.5093 2.7693
0.89991 0.76306 2.5043 2.7683
0.91094 0.76278 2.4993 2.7673
0.92227 0.76278 2.4951 2.7673
0.93156 0.76112 2.4855 2.7613
0.94215 0.76057 2.4794 2.7593
0.94959 0.75753 2.4653 2.7483
0.96042 0.75726 2.46 2.7473
0.97339 0.75867 2.4602 2.7524
0.98276 0.75729 2.4513 2.7474
0.98989 0.75426 2.437 2.7364
0.99728 0.7515 2.4236 2.7264
1.0064 0.75012 2.4146 2.7214
1.0166 0.74956 2.4083 2.7194
1.0275 0.74956 2.4036 2.7194
1.0384 0.74956 2.3989 2.7194
1.0471 0.74794 2.389 2.7135
1.0567 0.74711 2.3816 2.7105
1.0659 0.74601 2.3732 2.7065
1.0767 0.746 2.3684 2.7065
1.0822 0.74242 2.3521 2.6935
1.0916 0.74159 2.3445 2.6905
1.101 0.74076 2.3369 2.6874
1.111 0.74036 2.3307 2.686
1.1185 0.73831 2.3192 2.6786
1.1214 0.73335 2.2985 2.6605
1.1318 0.73334 2.2934 2.6605
1.1401 0.73196 2.2839 2.6555
1.1496 0.73141 2.277 2.6535
1.1586 0.73058 2.2692 2.6505
1.1685 0.73034 2.2631 2.6496
1.1787 0.73034 2.2578 2.6496
1.189 0.73033 2.2524 2.6496
1.1992 0.73033 2.247 2.6496
1.2089 0.73005 2.2407 2.6486
1.2177 0.72922 2.2326 2.6456
1.2259 0.72812 2.2237 2.6416
1.2361 0.72815 2.2182 2.6417
1.2438 0.72677 2.2084 2.6367
1.2538 0.72677 2.2027 2.6367
1.2628 0.72621 2.1953 2.6347
1.2727 0.72621 2.1895 2.6346
1.2756 0.72223 2.1718 2.6202
1.2877 0.72348 2.1697 2.6248
1.2975 0.72348 2.1639 2.6247
1.3078 0.72375 2.1588 2.6257
1.3161 0.72292 2.1503 2.6227
1.3259 0.72292 2.1443 2.6227
1.3313 0.72059 2.1314 2.6143
1.3433 0.72184 2.129 2.6188
1.3483 0.71936 2.1156 2.6098
1.3521 0.71632 2.1006 2.5988
1.3616 0.71632 2.0944 2.5988
1.3704 0.71592 2.087 2.5973
1.3785 0.71525 2.0788 2.5949
1.3879 0.71524 2.0725 2.5949
1.3979 0.71551 2.067 2.5959
1.4072 0.71551 2.0606 2.5958
1.4169 0.71566 2.0546 2.5964
1.4226 0.71389 2.0431 2.59
1.4302 0.71306 2.0343 2.5869
1.4394 0.71305 2.0277 2.5869
1.4486 0.71305 2.0212 2.5869
1.4592 0.71375 2.0166 2.5895
1.4693 0.71418 2.0111 2.591
1.4738 0.71197 1.9982 2.583
1.4823 0.71169 1.9907 2.582
1.4878 0.71003 1.9794 2.576
1.5009 0.712 1.9781 2.5831
1.5099 0.71199 1.9712 2.5831
1.5188 0.71199 1.9643 2.5831
1.5277 0.71198 1.9574 2.583
1.5372 0.71227 1.9512 2.5841
1.5472 0.71284 1.9458 2.5861
1.556 0.71283 1.9387 2.5861
1.5648 0.71283 1.9316 2.5861
1.5693 0.71091 1.9193 2.5792
1.5744 0.70927 1.9078 2.5732
1.583 0.70927 1.9006 2.5732
1.5947 0.71064 1.897 2.5782
1.6061 0.71189 1.8931 2.5827
1.6176 0.71314 1.8891 2.5873
1.6261 0.71314 1.8817 2.5872
1.627 0.70982 1.8656 2.5752
1.6381 0.71096 1.8612 2.5793
1.6459 0.71067 1.853 2.5783
1.6543 0.71067 1.8455 2.5783
1.6652 0.71178 1.8409 2.5823
1.6755 0.71262 1.8354 2.5854
1.6825 0.71206 1.8264 2.5833
1.6885 0.71111 1.8163 2.5799
1.6945 0.71015 1.8062 2.5764
1.6987 0.70849 1.7943 2.5704
1.7128 0.71097 1.7928 2.5794
1.7243 0.71238 1.7885 2.5845
1.7324 0.71237 1.7807 2.5845
1.7418 0.71292 1.7741 2.5864
1.7518 0.71374 1.7682 2.5894
1.7599 0.71377 1.7604 2.5895
1.7679 0.71376 1.7523 2.5895
1.7785 0.71486 1.747 2.5935
1.7845 0.71406 1.7369 2.5906
1.7944 0.71488 1.7308 2.5935
1.8022 0.71487 1.7226 2.5935
1.8094 0.71462 1.7138 2.5926
1.8171 0.71462 1.7056 2.5926
1.8227 0.71378 1.6953 2.5896
1.8347 0.71546 1.691 2.5957
1.8423 0.71545 1.6826 2.5956
1.8503 0.7156 1.6746 2.5962
1.8633 0.71768 1.671 2.6037
1.8708 0.71767 1.6625 2.6037
1.8763 0.71686 1.6522 2.6008
1.8837 0.71686 1.6436 2.6007
1.889 0.71604 1.6332 2.5977
1.8621 0.70309 1.5952 2.5508
1.807 0.67967 1.5339 2.4658
1.7434 0.65321 1.4663 2.3698
1.7464 0.65186 1.4553 2.3649
nan nan nan -inf
nan nan nan -inf
nan nan nan -inf
nan nan nan -inf
nan nan nan -inf
nan nan nan -inf
nan nan nan -inf
nan nan nan -inf
nan nan nan -inf
nan nan nan -inf
nan nan nan -inf
nan nan nan -inf
-1.2556 0.4796 1.0634 1.7139
-1.2512 0.47975 1.0695 1.7144
-1.2401 0.47737 1.0698 1.7059
-1.2302 0.47542 1.071 1.699
-1.2188 0.47289 1.0709 1.6899
-1.2088 0.47092 1.0719 1.6829
-1.2011 0.4698 1.0749 1.6789
-1.1869 0.46615 1.0719 1.6658
-1.1771 0.4642 1.0728 1.6589
-1.1679 0.4625 1.0742 1.6528
-1.163 0.46251 1.0795 1.6528
-1.1437 0.45676 1.0713 1.6323
-1.1315 0.45381 1.0695 1.6218
-1.1232 0.45242 1.0714 1.6168
-1.1179 0.45227 1.0761 1.6162
-1.114 0.45268 1.0822 1.6177
-1.1029 0.45017 1.0812 1.6087
-1.0871 0.4457 1.0754 1.5928
-1.0869 0.44762 1.085 1.5996
-1.0819 0.44763 1.0899 1.5997
-1.0703 0.44484 1.088 1.5897
-1.0562 0.44105 1.0835 1.5761
-1.0469 0.43922 1.0838 1.5696
-1.0387 0.43783 1.0851 1.5646
-1.0278 0.4353 1.0835 1.5556
-1.0222 0.43501 1.0875 1.5545
-1.0166 0.43473 1.0914 1.5536
-1.0025 0.43082 1.0862 1.5396
-0.99035 0.42771 1.0828 1.5285
-0.98543 0.42772 1.0873 1.5285
-0.9805 0.42773 1.0918 1.5285
-0.97422 0.42716 1.0948 1.5265
-0.97937 0.43162 1.1107 1.5424
-0.9819 0.43499 1.1238 1.5545
-0.97959 0.43623 1.1315 1.5589
-0.9791 0.43832 1.1414 1.5664
-0.97453 0.43861 1.1466 1.5674
-0.97798 0.44253 1.1613 1.5814
-0.97263 0.4425 1.1657 1.5813
-0.97895 0.44782 1.1841 1.6003
-0.98696 0.45398 1.2049 1.6224
-1.0038 0.46432 1.237 1.6593
-1.021 0.47494 1.2699 1.6973
-1.562 0.73071 1.9609 2.6113
-1.6655 0.78361 2.1104 2.8003
-1.6522 0.78189 2.1133 2.7942
-1.6438 0.78246 2.1224 2.7962
-1.6342 0.78246 2.1298 2.7962
-1.6245 0.78247 2.1372 2.7962
-1.6118 0.78103 2.1407 2.7911
-1.6032 0.7816 2.1495 2.7931
-1.594 0.78188 2.1576 2.7942
-1.5921 0.78581 2.1757 2.8082
-1.5833 0.78637 2.1844 2.8102
-1.5767 0.78801 2.1962 2.8161
-1.5667 0.78802 2.2033 2.8161
-1.5495 0.78439 2.2003 2.8031
-1.5395 0.78439 2.2073 2.8031
-1.5251 0.78216 2.208 2.7951
-1.5014 0.77512 2.1949 2.77
-1.4914 0.77513 2.2018 2.77
-1.4793 0.77401 2.2053 2.766
-1.4666 0.77262 2.2081 2.761
-1.4528 0.77066 2.2091 2.754
-1.4422 0.77034 2.2148 2.7529
-1.4233 0.76559 2.2076 2.7359
-1.4086 0.76308 2.2068 2.7269
-1.3975 0.76252 2.2115 2.725
-1.3865 0.76197 2.2162 2.723
-1.3725 0.75985 2.2164 2.7154
-1.3612 0.75914 2.2205 2.7129
-1.3456 0.75606 2.2176 2.7019
-1.3335 0.75495 2.2204 2.6979
-1.32 0.75299 2.2207 2.6909
-1.3007 0.74768 2.211 2.6719
-1.2968 0.75128 2.2275 2.6848
-1.2805 0.74765 2.2226 2.6718
-1.2642 0.74401 2.2176 2.6588
-1.2527 0.74318 2.2208 2.6558
-1.2407 0.74206 2.2231 2.6518
-1.228 0.74051 2.2241 2.6463
-1.2149 0.73867 2.2241 2.6397
-1.2011 0.73644 2.2229 2.6317
-1.1905 0.73616 2.2275 2.6308
-1.1786 0.73504 2.2295 2.6268
-1.1671 0.73421 2.2323 2.6238
-1.1526 0.73141 2.229 2.6138
-1.1389 0.72914 2.2273 2.6057
-1.1244 0.72634 2.2239 2.5957
-1.1134 0.72579 2.2273 2.5937
-1.1029 0.72551 2.2314 2.5927
-1.0906 0.72411 2.2321 2.5877
-1.0788 0.723 2.2336 2.5837
-1.0659 0.72116 2.2328 2.5772
-1.0662 0.72828 2.2597 2.6026
-1.0677 0.7364 2.2898 2.6316
-1.0705 0.74564 2.3234 2.6646
-1.0759 0.75683 2.3632 2.7046
-1.1136 0.79125 2.4758 2.8276
-1.4391 1.033 3.2388 3.6916
-1.4205 1.0302 3.2365 3.6816
-1.4019 1.0274 3.2341 3.6715
-1.3868 1.0271 3.2395 3.6705
-1.371 1.0263 3.2431 3.6675
-1.3548 1.0252 3.2458 3.6635
-1.3396 1.0249 3.251 3.6626
-1.3241 1.0243 3.2553 3.6606
-1.3079 1.0232 3.2578 3.6566
-1.2881 1.0193 3.2511 3.6424
-1.2659 1.0134 3.2381 3.6214
-1.2512 1.0134 3.2438 3.6215
-1.2354 1.0126 3.2468 3.6185
-1.2207 1.0126 3.2524 3.6185
-1.2092 1.0154 3.2669 3.6285
-1.2194 1.0366 3.3409 3.7045
-1.2055 1.0377 3.3501 3.7085
-1.1902 1.0377 3.3555 3.7085
-1.1848 1.0464 3.3888 3.7394
-1.1853 1.0607 3.4405 3.7904
-1.3468 1.2213 3.9677 4.3644
-1.333 1.2252 3.9865 4.3784
-1.3263 1.2358 4.0272 4.4164
-1.3124 1.24 4.0469 4.4314
-1.294 1.24 4.0528 4.4314
-1.2756 1.24 4.0587 4.4314
-1.2571 1.24 4.0644 4.4314
-1.2386 1.24 4.0701 4.4314
-1.2171 1.237 4.0656 4.4204
-1.2167 1.2557 4.1326 4.4873
-1.1966 1.2543 4.1335 4.4823
-1.177 1.2534 4.1361 4.4793
-1.1559 1.2509 4.1331 4.4703
-1.1264 1.2392 4.0995 4.4283
-1.0807 1.2089 4.0044 4.3203
-1.0569 1.2025 3.988 4.2973
-1.0387 1.2025 3.9927 4.2973
-1.0206 1.2025 3.9974 4.2973
-1.0264 1.2313 4.0979 4.4003
-1.0142 1.2392 4.1287 4.4283
-0.99611 1.24 4.136 4.4313
-0.9773 1.24 4.1405 4.4313
-0.95782 1.2392 4.1421 4.4283
-0.93644 1.2358 4.1352 4.4164
-0.93111 1.254 4.2002 4.4812
-0.91201 1.254 4.2044 4.4812
-0.89449 1.2562 4.216 4.4892
-0.87532 1.2562 4.22 4.4892
-0.85613 1.2562 4.224 4.4892
-0.83376 1.2515 4.2118 4.4722
-0.81261 1.2484 4.2052 4.4612
-0.79349 1.2484 4.2089 4.4612
-0.77435 1.2484 4.2124 4.4612
-0.75638 1.2503 4.2225 4.4682
-0.73718 1.2503 4.2259 4.4682
-0.71797 1.2503 4.2292 4.4682
-0.69718 1.2475 4.223 4.4582
-0.67768 1.247 4.2242 4.4562
-0.65817 1.2464 4.2253 4.4542
-0.63896 1.2464 4.2283 4.4543
-0.61835 1.2436 4.2217 4.4443
-0.59848 1.2422 4.2197 4.4393
-0.5793 1.2422 4.2224 4.4393
-0.5601 1.2422 4.225 4.4393
-0.5409 1.2422 4.2275 4.4393
-0.52086 1.2403 4.2232 4.4323
-0.50075 1.238 4.2179 4.4243
-0.49027 1.2604 4.2963 4.5041
-0.47073 1.2604 4.2985 4.5041
-0.45069 1.259 4.2958 4.4991
-0.43116 1.259 4.2978 4.4991
-0.41135 1.2581 4.2968 4.4961
-0.39182 1.2581 4.2987 4.4961
-0.37195 1.257 4.2966 4.4921
-0.35234 1.2567 4.2973 4.4911
-0.3328 1.2567 4.2988 4.4911
-0.31326 1.2567 4.3003 4.4911
-0.29365 1.2565 4.3007 4.4901
-0.27416 1.2567 4.303 4.4911
-0.25472 1.2573 4.3061 4.4931
-0.23514 1.2573 4.3072 4.4931
-0.21557 1.2573 4.3082 4.4931
-0.19598 1.2573 4.3092 4.4931
-0.17589 1.2537 4.2975 4.4801
-0.15635 1.2537 4.2983 4.4801
-0.13681 1.2537 4.299 4.4801
-0.11733 1.2542 4.3015 4.4821
-0.097952 1.2565 4.3096 4.4901
-0.078364 1.2565 4.31 4.4901
-0.058709 1.2551 4.3055 4.4851
-0.03914 1.2551 4.3058 4.4851
-0.019571 1.2551 4.3059 4.4851
0 1.2551 4.3059 4.4851
0.019622 1.2584 4.3174 4.4971
0.039262 1.259 4.3192 4.4991
0.058891 1.259 4.319 4.4991
0.07852 1.259 4.3187 4.4991
0.09806 1.2579 4.3144 4.4951
0.11714 1.2523 4.2947 4.4751
0.13504 1.2374 4.2433 4.4221
0.14445 1.1582 3.9711 4.1391
0.15739 1.1219 3.8457 4.0091
0.16815 1.0788 3.6973 3.8551
0.17805 1.0385 3.5584 3.7111
0.18726 1.0013 3.4301 3.5781
0.19632 0.96908 3.319 3.4631
0.20433 0.93662 3.2069 3.3471
0.21327 0.91256 3.1236 3.2611
0.21896 0.87842 3.0057 3.1391
0.22595 0.85323 2.9186 3.0491
0.23333 0.83224 2.8457 2.9741
0.23963 0.80986 2.7681 2.8941
0.2448 0.78607 2.6858 2.8091
0.24923 0.76228 2.6034 2.7241
0.25972 0.75837 2.5888 2.7101
0.27108 0.75725 2.5838 2.7061
0.28075 0.7517 2.5636 2.6863
0.29174 0.75002 2.5566 2.6803
0.30211 0.74694 2.5448 2.6693
0.31274 0.7447 2.5357 2.6613
0.32401 0.74414 2.5324 2.6593
0.33464 0.74218 2.5242 2.6523
0.34297 0.73546 2.4998 2.6283
0.35352 0.73378 2.4926 2.6223
0.36429 0.73266 2.4871 2.6183
0.37559 0.73266 2.4854 2.6182
0.38555 0.73014 2.4752 2.6092
0.39543 0.72762 2.4648 2.6002
0.40662 0.72762 2.463 2.6002
0.41781 0.72762 2.4611 2.6002
0.42932 0.72818 2.4611 2.6022
0.44491 0.73545 2.4837 2.6282
0.46105 0.74329 2.5081 2.6562
0.47511 0.74748 2.5201 2.6712
0.48929 0.75168 2.5321 2.6862
0.50564 0.75896 2.5543 2.7122
0.52087 0.76427 2.5698 2.7312
0.53683 0.77043 2.5881 2.7532
0.54859 0.77043 2.5857 2.7532
0.56603 0.77826 2.6094 2.7812
0.58872 0.79285 2.6557 2.8334
0.60778 0.80209 2.6839 2.8663
0.62278 0.80572 2.6932 2.8793
0.63832 0.80992 2.7044 2.8943
0.65353 0.81356 2.7136 2.9073
0.66585 0.81355 2.7106 2.9073
0.67817 0.81355 2.7075 2.9073
0.6888 0.81159 2.6979 2.9003
0.69767 0.80767 2.6817 2.8863
0.70886 0.80655 2.6748 2.8823
0.72051 0.80599 2.6697 2.8803
0.73238 0.80571 2.6655 2.8793
0.74294 0.80403 2.6566 2.8733
0.7529 0.80179 2.6458 2.8653
0.76256 0.79931 2.6342 2.8564
0.77425 0.79903 2.6298 2.8554
0.78344 0.79623 2.617 2.8454
0.79392 0.79483 2.6088 2.8404
0.80407 0.79315 2.5997 2.8344
0.81357 0.79091 2.5887 2.8264
0.82532 0.79091 2.5849 2.8264
0.83084 0.78503 2.562 2.8054
0.84247 0.78503 2.5582 2.8054
0.85409 0.78503 2.5543 2.8054
0.86569 0.78502 2.5504 2.8054
0.87419 0.78227 2.5375 2.7955
0.88476 0.78142 2.5307 2.7925
0.89625 0.78142 2.5267 2.7925
0.90414 0.77834 2.5126 2.7815
0.91292 0.7761 2.5013 2.7735
0.92261 0.7747 2.4926 2.7685
0.93325 0.77414 2.4866 2.7665
0.94283 0.77274 2.4778 2.7615
0.9527 0.77161 2.4699 2.7574
0.96324 0.77107 2.4638 2.7555
0.97303 0.76997 2.4559 2.7516
0.98382 0.76969 2.4506 2.7506
0.99025 0.76605 2.4345 2.7376
0.99837 0.76381 2.4229 2.7296
1.009 0.76353 2.4174 2.7285
1.0192 0.76296 2.411 2.7265
1.029 0.76212 2.4037 2.7235
1.0384 0.76102 2.3955 2.7196
1.0493 0.76104 2.3909 2.7196
1.0594 0.76047 2.3843 2.7176
1.0655 0.75711 2.3689 2.7056
1.0763 0.75711 2.3641 2.7056
1.0862 0.75655 2.3574 2.7036
1.0969 0.75654 2.3524 2.7036
1.1051 0.75488 2.3423 2.6977
1.1133 0.75322 2.3321 2.6917
1.1193 0.75014 2.3175 2.6807
1.1239 0.74622 2.3003 2.6667
1.1344 0.74621 2.2951 2.6667
1.1435 0.74537 2.2874 2.6637
1.1521 0.74425 2.2787 2.6597
1.1625 0.74425 2.2734 2.6596
1.1746 0.74541 2.2717 2.6638
1.184 0.74484 2.2646 2.6618
1.1943 0.74484 2.2592 2.6618
1.1996 0.74176 2.2444 2.6508
1.2102 0.74203 2.2398 2.6517
1.2204 0.74203 2.2342 2.6517
1.2319 0.74289 2.2312 2.6548
1.2393 0.74122 2.2206 2.6488
1.2494 0.74122 2.2149 2.6488
1.2532 0.73758 2.1984 2.6358
1.2613 0.73646 2.1893 2.6318
1.2688 0.73505 2.1794 2.6268
1.2826 0.73733 2.1804 2.6349
1.2925 0.73732 2.1745 2.6349
1.295 0.73312 2.1562 2.6199
1.3043 0.73284 2.1495 2.6189
1.314 0.73283 2.1435 2.6189
1.323 0.73243 2.1364 2.6174
1.333 0.73259 2.1308 2.618
1.3427 0.73258 2.1247 2.618
1.3523 0.73258 2.1186 2.6179
1.3609 0.73201 2.1108 2.6159
1.3694 0.73145 2.1029 2.6139
1.3737 0.72869 2.0888 2.6041
1.3816 0.72785 2.0801 2.601
1.3926 0.72868 2.0762 2.604
1.3999 0.72756 2.0666 2.6
1.4082 0.72699 2.0587 2.598
1.4198 0.72815 2.0555 2.6021
1.4263 0.72675 2.0451 2.5971
1.4334 0.72562 2.0354 2.5931
1.4449 0.72674 2.032 2.5971
1.4518 0.72561 2.0223 2.5931
1.4616 0.72593 2.0165 2.5942
1.4697 0.72537 2.0083 2.5922
1.4753 0.72368 1.997 2.5862
1.4844 0.72368 1.9902 2.5861
1.4934 0.72367 1.9834 2.5861
1.5025 0.72371 1.9767 2.5862
1.5108 0.72342 1.9691 2.5852
1.5198 0.72342 1.9622 2.5852
1.5287 0.72341 1.9553 2.5852
1.537 0.72316 1.9476 2.5843
1.547 0.72372 1.9421 2.5863
1.5534 0.72259 1.9321 2.5823
1.5622 0.72259 1.925 2.5822
1.574 0.72402 1.9216 2.5874
1.5797 0.72261 1.9108 2.5823
1.5883 0.72261 1.9035 2.5823
1.5988 0.72346 1.8985 2.5854
1.6062 0.72291 1.8898 2.5834
1.6148 0.72291 1.8825 2.5834
1.6233 0.7229 1.8751 2.5834
1.6331 0.72347 1.8692 2.5854
1.6422 0.72376 1.8625 2.5864
1.6494 0.7232 1.8536 2.5844
1.6582 0.72335 1.8464 2.585
1.6617 0.72126 1.8336 2.5775
1.6694 0.72097 1.8253 2.5765
1.6776 0.72097 1.8177 2.5765
1.6905 0.72296 1.815 2.5836
1.6987 0.72295 1.8073 2.5835
1.7069 0.72294 1.7995 2.5835
1.7151 0.72294 1.7917 2.5835
1.7273 0.72465 1.7882 2.5896
1.7354 0.72464 1.7803 2.5896
1.7434 0.72464 1.7723 2.5896
1.7488 0.72353 1.7617 2.5856
1.7541 0.72242 1.7511 2.5817
1.762 0.72241 1.743 2.5816
1.7785 0.72592 1.7434 2.5942
1.7854 0.72551 1.7344 2.5927
1.7912 0.72467 1.7242 2.5897
1.7973 0.72398 1.7144 2.5872
1.8124 0.72693 1.7132 2.5978
1.8202 0.72692 1.7049 2.5977
1.8293 0.72749 1.698 2.5998
1.8349 0.72666 1.6877 2.5968
1.8426 0.72666 1.6794 2.5968
1.8502 0.72667 1.671 2.5968
1.8606 0.72778 1.6651 2.6008
1.8686 0.72793 1.657 2.6013
1.8765 0.72808 1.6488 2.6019
1.8821 0.72739 1.6387 2.5994
1.8878 0.72669 1.6286 2.5969
1.8558 0.71159 1.5863 2.5429
1.8 0.68753 1.5245 2.457
1.7337 0.65969 1.4549 2.3575
1.7348 0.65761 1.4424 2.35
nan nan nan -inf
nan nan nan -inf
nan nan nan -inf
nan nan nan -inf
nan nan nan -inf
nan nan nan -inf
nan nan nan -inf
nan nan nan -inf
nan nan nan -inf
nan nan nan -inf
nan nan nan -inf
nan nan nan -inf
-1.2518 0.48545 1.0578 1.7092
-1.2563 0.48911 1.0715 1.7221
-1.2489 0.48811 1.075 1.7186
-1.2226 0.47972 1.0621 1.6891
-1.2127 0.47774 1.0632 1.6821
-1.2064 0.47715 1.0674 1.68
-1.2015 0.47716 1.0729 1.68
-1.1906 0.47474 1.0729 1.6715
-1.1775 0.47146 1.0709 1.66
-1.1655 0.46861 1.0697 1.65
-1.1557 0.46662 1.0704 1.6429
-1.1473 0.46521 1.0724 1.638
-1.1375 0.46321 1.073 1.6309
-1.1299 0.46207 1.0755 1.6269
-1.1187 0.45952 1.0747 1.6179
-1.1103 0.45807 1.0764 1.6128
-1.1054 0.45808 1.0814 1.6129
-1.0978 0.45695 1.0838 1.6089
-1.0799 0.45153 1.0758 1.5898
-1.0716 0.45011 1.0774 1.5848
-1.0667 0.45011 1.0822 1.5848
-1.0584 0.4487 1.0837 1.5798
-1.0461 0.44554 1.0808 1.5687
-1.0405 0.44527 1.0849 1.5678
-1.0257 0.44102 1.0792 1.5528
-1.0217 0.44143 1.0849 1.5542
-1.0157 0.44099 1.0884 1.5527
-1.0075 0.43958 1.0895 1.5477
-0.99801 0.43758 1.0891 1.5407
-0.9885 0.43558 1.0887 1.5336
-0.98291 0.4353 1.0925 1.5327
-0.97859 0.43559 1.0976 1.5337
-0.97732 0.43726 1.1063 1.5396
-0.97671 0.43926 1.1158 1.5466
-0.9798 0.44296 1.1297 1.5596
-0.974 0.44266 1.1334 1.5586
-0.97005 0.44322 1.1392 1.5605
-0.97043 0.44578 1.1502 1.5696
-0.98115 0.45315 1.1737 1.5955
-0.98189 0.45598 1.1855 1.6055
-0.98258 0.45883 1.1974 1.6155
-0.985 0.46252 1.2116 1.6285
-0.98009 0.46281 1.2168 1.6295
-1.5982 0.75901 2.0028 2.6724
-1.6682 0.79679 2.1102 2.8054
-1.6571 0.79606 2.1158 2.8029
-1.6459 0.79534 2.1214 2.8003
-1.6322 0.79336 2.1236 2.7934
-1.6225 0.79336 2.131 2.7934
-1.6116 0.79278 2.1368 2.7913
-1.6001 0.79191 2.1417 2.7883
-1.5904 0.79192 2.149 2.7883
-1.5806 0.79192 2.1562 2.7883
-1.5865 0.79988 2.1851 2.8163
-1.5743 0.79871 2.1891 2.8122
-1.5671 0.80013 2.2002 2.8172
-1.5571 0.80014 2.2073 2.8172
-1.5443 0.79873 2.2105 2.8123
-1.5216 0.7922 2.1993 2.7893
-1.5137 0.7933 2.2093 2.7931
-1.4994 0.79103 2.2098 2.7852
-1.4834 0.78791 2.2079 2.7742
-1.4691 0.78564 2.2082 2.7662
-1.4548 0.78337 2.2085 2.7582
-1.4374 0.77936 2.2038 2.7441
-1.4268 0.77908 2.2095 2.7431
-1.4157 0.77851 2.2143 2.7411
-1.401 0.77596 2.2135 2.7321
-1.3879 0.77426 2.215 2.7261
-1.3737 0.77199 2.2148 2.7181
-1.3596 0.76968 2.2143 2.71
-1.3485 0.76912 2.2189 2.708
-1.3359 0.7677 2.2209 2.703
-1.3253 0.76742 2.2261 2.7021
-1.3084 0.76345 2.2206 2.6881
-1.2929 0.76031 2.2174 2.677
-1.2804 0.75887 2.219 2.6719
-1.2688 0.75802 2.2223 2.669
-1.2573 0.75718 2.2256 2.666
-1.2439 0.75519 2.2254 2.659
-1.231 0.75349 2.2261 2.653
-1.2197 0.75277 2.2295 2.6504
-1.2088 0.75232 2.2337 2.6489
-1.1868 0.74494 2.2172 2.6229
-1.1759 0.74438 2.2209 2.6209
-1.164 0.74325 2.2228 2.6169
-1.1534 0.74297 2.2273 2.6159
-1.1419 0.7421 2.2299 2.6129
-1.1252 0.73782 2.2222 2.5978
-1.1151 0.73782 2.2273 2.5978
-1.105 0.73783 2.2324 2.5978
-1.0944 0.73754 2.2365 2.5968
-1.0846 0.73783 2.2423 2.5979
-1.0756 0.73869 2.2499 2.6009
-1.0623 0.73654 2.2482 2.5933
-1.0681 0.74774 2.2872 2.6327
-1.0697 0.75626 2.3182 2.6628
-1.0786 0.77018 2.3658 2.7118
-1.1151 0.80427 2.4756 2.8318
-1.4515 1.0576 3.2621 3.7238
-1.4367 1.0576 3.2687 3.7238
-1.4095 1.0485 3.2469 3.6917
-1.3906 1.0454 3.2436 3.6807
-1.3732 1.0434 3.2437 3.6737
-1.3551 1.0408 3.242 3.6647
-1.3396 1.0403 3.2463 3.6627
-1.3237 1.0394 3.2497 3.6597
-1.3082 1.0388 3.254 3.6577
-1.2877 1.0343 3.2456 3.6417
-1.2603 1.024 3.2192 3.6056
-1.2391 1.0187 3.2079 3.5866
-1.2245 1.0187 3.2135 3.5866
-1.2099 1.0187 3.2191 3.5866
-1.2099 1.0312 3.2641 3.6306
-1.2072 1.0417 3.3029 3.6676
-1.1925 1.042 3.3093 3.6686
-1.1774 1.042 3.3147 3.6687
-1.1678 1.0469 3.3358 3.6861
-1.1584 1.0521 3.3578 3.7045
-1.1446 1.0536 3.3676 3.7095
-1.3394 1.2495 4.0001 4.3995
-1.3212 1.2495 4.0061 4.3995
-1.3029 1.2495 4.0121 4.3995
-1.2814 1.2464 4.008 4.3886
-1.2629 1.2461 4.0129 4.3876
-1.2398 1.2413 4.003 4.3706
-1.2202 1.2399 4.004 4.3656
-1.2008 1.2388 4.0059 4.3616
-1.1972 1.2541 4.0608 4.4154
-1.1768 1.2521 4.0598 4.4084
-1.1563 1.2498 4.0577 4.4005
-1.1373 1.2492 4.0611 4.3985
-1.1167 1.247 4.0588 4.3905
-1.0797 1.2259 3.9954 4.3165
-1.0512 1.214 3.9613 4.2745
-1.0332 1.214 3.9661 4.2745
-1.0151 1.214 3.9708 4.2745
-1.0141 1.2348 4.0432 4.3475
-0.99819 1.2379 4.0581 4.3585
-0.97971 1.2379 4.0626 4.3585
-0.96121 1.2379 4.067 4.3585
-0.94183 1.2367 4.0676 4.3545
-0.93642 1.2543 4.1296 4.4164
-0.91741 1.254 4.1329 4.4154
-0.89839 1.2537 4.1361 4.4144
-0.87917 1.2532 4.1383 4.4124
-0.86013 1.2529 4.1413 4.4114
-0.84128 1.2529 4.1452 4.4114
-0.82091 1.2506 4.1415 4.4034
-0.80206 1.2506 4.1452 4.4034
-0.78248 1.2495 4.145 4.3994
-0.76309 1.2486 4.1457 4.3964
-0.74303 1.2467 4.1425 4.3894
-0.72384 1.2461 4.144 4.3874
-0.70497 1.2461 4.1472 4.3874
-0.68641 1.2467 4.1523 4.3894
-0.6675 1.2467 4.1554 4.3894
-0.64829 1.2461 4.1565 4.3874
-0.62622 1.2398 4.1385 4.3654
-0.60738 1.2398 4.1414 4.3654
-0.58839 1.2396 4.1431 4.3644
-0.56953 1.2396 4.1458 4.3644
-0.55041 1.239 4.1464 4.3624
-0.53153 1.239 4.1489 4.3624
-0.52085 1.2588 4.2177 4.4323
-0.50075 1.2566 4.2124 4.4243
-0.48157 1.2566 4.2147 4.4243
-0.46239 1.2566 4.2168 4.4243
-0.4434 1.2571 4.2208 4.4263
-0.42418 1.2571 4.2228 4.4263
-0.40496 1.2571 4.2246 4.4263
-0.38425 1.2523 4.2102 4.4093
-0.36509 1.2523 4.2119 4.4093
-0.34592 1.2523 4.2135 4.4093
-0.32689 1.2529 4.217 4.4113
-0.30797 1.254 4.2223 4.4153
-0.28876 1.254 4.2236 4.4153
-0.26953 1.254 4.2249 4.4153
-0.25008 1.2529 4.2222 4.4113
-0.23081 1.2526 4.2224 4.4103
-0.21159 1.2526 4.2234 4.4103
-0.19237 1.2526 4.2243 4.4103
-0.1731 1.2523 4.2242 4.4093
-0.15378 1.2515 4.2221 4.4063
-0.13456 1.2515 4.2227 4.4063
-0.11534 1.2515 4.2233 4.4063
-0.096341 1.2543 4.2333 4.4163
-0.077075 1.2543 4.2337 4.4163
-0.057834 1.2549 4.236 4.4183
-0.038583 1.2557 4.2391 4.4213
-0.019279 1.2549 4.2363 4.4183
0 1.2557 4.2392 4.4213
0.019291 1.2557 4.2392 4.4213
0.03867 1.2586 4.2486 4.4313
0.058004 1.2586 4.2484 4.4313
0.077336 1.2586 4.2481 4.4313
0.09658 1.2574 4.2439 4.4273
0.11563 1.2546 4.2338 4.4173
0.13453 1.2512 4.2217 4.4053
0.14589 1.1873 4.0055 4.1803
0.15673 1.1339 3.8247 3.9923
0.16864 1.0981 3.7032 3.8663
0.17882 1.0586 3.5693 3.7273
0.18753 1.0177 3.4306 3.5833
0.19713 0.98761 3.3283 3.4773
0.20507 0.95409 3.2144 3.3593
0.21407 0.92967 3.1312 3.2733
0.22057 0.89814 3.024 3.1623
0.22885 0.87712 2.9523 3.0883
0.23342 0.84503 2.8432 2.9753
0.23857 0.81833 2.7523 2.8813
0.24482 0.79788 2.6824 2.8093
0.25053 0.77771 2.6135 2.7383
0.2604 0.77175 2.5923 2.7173
0.2717 0.77033 2.5864 2.7123
0.28075 0.76294 2.5603 2.6863
0.29174 0.76124 2.5533 2.6803
0.30281 0.75987 2.5473 2.6754
0.31322 0.75703 2.5364 2.6654
0.32476 0.75702 2.535 2.6654
0.33529 0.75475 2.5258 2.6574
0.3456 0.75219 2.5157 2.6484
0.35422 0.74623 2.4942 2.6274
0.36501 0.74509 2.4888 2.6234
0.37633 0.74509 2.4871 2.6234
0.38557 0.74111 2.4721 2.6094
0.39469 0.73714 2.457 2.5954
0.40586 0.73714 2.4552 2.5954
0.41703 0.73713 2.4533 2.5954
0.43067 0.74139 2.4656 2.6104
0.4473 0.75048 2.4938 2.6424
0.45882 0.75076 2.4927 2.6434
0.47816 0.76354 2.5329 2.6884
0.49095 0.76553 2.5373 2.6954
0.50734 0.77291 2.5595 2.7214
0.52451 0.78115 2.5844 2.7504
0.54056 0.7874 2.6027 2.7724
0.55658 0.79336 2.6199 2.7934
0.57399 0.80103 2.6426 2.8204
0.58999 0.80647 2.6579 2.8395
0.60505 0.81044 2.6683 2.8535
0.62497 0.82067 2.6991 2.8895
0.64342 0.82862 2.7224 2.9175
0.6558 0.82861 2.7194 2.9175
0.66817 0.82861 2.7164 2.9175
0.68005 0.82804 2.7114 2.9155
0.69001 0.8252 2.699 2.9055
0.7018 0.82463 2.694 2.9035
0.70938 0.81923 2.6732 2.8845
0.71853 0.81582 2.6588 2.8725
0.72833 0.81327 2.6472 2.8635
0.73934 0.81213 2.6401 2.8595
0.75055 0.81127 2.634 2.8564
0.76364 0.81245 2.6343 2.8606
0.77318 0.80989 2.6226 2.8516
0.78207 0.80677 2.6089 2.8406
0.79282 0.80563 2.6016 2.8366
0.80465 0.80563 2.598 2.8366
0.81444 0.80364 2.5879 2.8296
0.82533 0.80278 2.5814 2.8266
0.83381 0.79966 2.5676 2.8155
0.84278 0.7971 2.5556 2.8065
0.85136 0.79426 2.5426 2.7965
0.86261 0.79397 2.5378 2.7955
0.87513 0.79486 2.5367 2.7987
0.88255 0.79117 2.5209 2.7857
0.89176 0.78918 2.5105 2.7787
0.90317 0.78918 2.5065 2.7786
0.91457 0.78917 2.5023 2.7786
0.92594 0.78917 2.4981 2.7786
0.9373 0.78917 2.4939 2.7786
0.94283 0.78434 2.4743 2.7616
0.95408 0.78434 2.47 2.7616
0.96396 0.78324 2.4622 2.7577
0.97444 0.78267 2.456 2.7557
0.9806 0.77869 2.4391 2.7417
0.99168 0.77869 2.4346 2.7417
1.0013 0.77755 2.4265 2.7377
1.0123 0.77754 2.4219 2.7377
1.0222 0.77669 2.4146 2.7347
1.0328 0.77642 2.4091 2.7337
1.0396 0.77332 2.3948 2.7228
1.0505 0.77331 2.39 2.7228
1.0613 0.77331 2.3852 2.7228
1.071 0.77246 2.3777 2.7198
1.0802 0.77132 2.3693 2.7158
1.089 0.76989 2.36 2.7107
1.0952 0.76677 2.3454 2.6997
1.1064 0.76709 2.3414 2.7009
1.117 0.76709 2.3364 2.7009
1.1138 0.75771 2.3028 2.6679
1.1243 0.75771 2.2976 2.6678
1.1347 0.7577 2.2925 2.6678
1.1447 0.75742 2.2864 2.6668
1.1551 0.75741 2.2812 2.6668
1.166 0.75774 2.2769 2.6679
1.1754 0.75717 2.2699 2.6659
1.1858 0.75716 2.2645 2.6659
1.1951 0.75659 2.2573 2.6639
1.2036 0.75545 2.2485 2.6599
1.2138 0.75545 2.243 2.6599
1.2238 0.75532 2.2371 2.6594
1.2314 0.75378 2.2269 2.654
1.2369 0.75093 2.2129 2.644
1.2436 0.74894 2.2014 2.637
1.2536 0.74894 2.1957 2.637
1.2626 0.74837 2.1883 2.6349
1.2726 0.74838 2.1826 2.635
1.2801 0.74698 2.1727 2.6301
1.29 0.74698 2.1668 2.6301
1.2984 0.74612 2.1585 2.627
1.3057 0.74469 2.1484 2.622
1.3149 0.74441 2.1416 2.621
1.3293 0.747 2.1431 2.6301
1.337 0.74586 2.1337 2.6261
1.3451 0.74501 2.1252 2.6231
1.3537 0.74443 2.1174 2.6211
1.3561 0.74045 2.0999 2.6071
1.364 0.7396 2.0913 2.6041
1.3757 0.74077 2.0884 2.6082
1.3852 0.74077 2.0821 2.6082
1.3957 0.74133 2.0774 2.6102
1.4041 0.74076 2.0694 2.6082
1.4135 0.74075 2.063 2.6081
1.4245 0.74164 2.059 2.6113
1.4268 0.73795 2.0423 2.5983
1.436 0.73794 2.0357 2.5982
1.4453 0.73794 2.0292 2.5982
1.4545 0.73793 2.0225 2.5982
1.4671 0.73967 2.0207 2.6043
1.4712 0.73711 2.007 2.5953
1.4752 0.73455 1.9933 2.5863
1.4842 0.73454 1.9866 2.5863
1.4956 0.7357 1.9829 2.5903
1.5069 0.73685 1.9792 2.5944
1.5112 0.73457 1.9662 2.5864
1.519 0.73399 1.9578 2.5843
1.5291 0.73458 1.9524 2.5864
1.5392 0.73516 1.9469 2.5884
1.5498 0.736 1.9421 2.5914
1.5586 0.736 1.9351 2.5914
1.5662 0.73544 1.9265 2.5894
1.5756 0.73574 1.9201 2.5905
1.5843 0.73573 1.9129 2.5905
1.593 0.73573 1.9057 2.5905
1.6023 0.73604 1.8992 2.5916
1.6122 0.7366 1.8933 2.5935
1.6195 0.73603 1.8845 2.5915
1.6237 0.73405 1.8721 2.5846
1.6278 0.73208 1.8597 2.5776
1.6362 0.73207 1.8522 2.5776
1.6491 0.73405 1.8497 2.5846
1.6595 0.73494 1.8444 2.5877
1.6679 0.73493 1.8368 2.5876
1.6736 0.73379 1.8264 2.5836
1.6839 0.73465 1.8209 2.5867
1.6941 0.73551 1.8154 2.5897
1.6983 0.73377 1.8033 2.5836
1.7112 0.73579 1.8005 2.5907
1.7181 0.73524 1.7914 2.5887
1.7256 0.73496 1.7829 2.5878
1.7337 0.73496 1.775 2.5877
1.7391 0.73383 1.7644 2.5838
1.7491 0.7347 1.7585 2.5868
1.7646 0.73781 1.758 2.5978
1.7675 0.73569 1.7449 2.5903
1.7703 0.73357 1.7318 2.5829
1.7795 0.73413 1.7251 2.5848
1.7908 0.73556 1.7203 2.5899
1.8021 0.73699 1.7154 2.5949
1.8148 0.73897 1.7118 2.6019
1.8208 0.73827 1.7019 2.5994
1.8268 0.73757 1.692 2.5969
1.8387 0.73928 1.6876 2.603
1.845 0.73872 1.6779 2.601
1.8526 0.73871 1.6695 2.601
1.8591 0.73829 1.6601 2.5995
1.8649 0.73759 1.6501 2.597
1.8767 0.7393 1.6454 2.603
1.8871 0.74045 1.6393 2.6071
1.8767 0.73349 1.6154 2.5826
1.837 0.71518 1.5668 2.5181
1.7793 0.69005 1.5036 2.4296
1.7027 0.65783 1.4257 2.3162
1.6923 0.65133 1.4039 2.2933
nan nan nan -inf
nan nan nan -inf
nan nan nan -inf
nan nan nan -inf
nan nan nan -inf
nan nan nan -inf
nan nan nan -inf
nan nan nan -inf
nan nan nan -inf
nan nan nan -inf
nan nan nan -inf
nan nan nan -inf
-1.2513 0.49259 1.055 1.7092
-1.248 0.49319 1.062 1.7113
-1.2417 0.4926 1.0664 1.7093
-1.2339 0.49144 1.0695 1.7052
-1.2239 0.48942 1.0707 1.6982
-1.209 0.48538 1.0674 1.6842
-1.202 0.48451 1.0709 1.6812
-1.1892 0.48134 1.0694 1.6702
-1.1868 0.48235 1.077 1.6737
-1.1681 0.47672 1.0698 1.6541
-1.1625 0.47642 1.0744 1.6531
-1.1548 0.47526 1.0771 1.6491
-1.1359 0.4695 1.0692 1.6291
-1.13 0.46906 1.0734 1.6276
-1.124 0.46862 1.0775 1.6261
-1.1088 0.46429 1.0726 1.611
-1.1025 0.4637 1.0763 1.609
-1.0921 0.46141 1.0759 1.601
-1.0834 0.45981 1.0772 1.5955
-1.0782 0.45966 1.0817 1.595
-1.0631 0.45531 1.0763 1.5798
-1.0589 0.45563 1.082 1.581
-1.0513 0.45447 1.084 1.5769
-1.0463 0.45446 1.0887 1.5769
-1.0288 0.44899 1.0803 1.5579
-1.0239 0.449 1.085 1.558
-1.0156 0.44752 1.0861 1.5528
-1.008 0.44638 1.0879 1.5489
-1.0031 0.44638 1.0925 1.5489
-0.99544 0.4452 1.0942 1.5448
-0.98469 0.44261 1.0923 1.5358
-0.97972 0.44262 1.0968 1.5358
-0.97405 0.44232 1.1005 1.5348
-0.97278 0.44403 1.1092 1.5407
-0.97024 0.44519 1.1166 1.5448
-0.97891 0.45154 1.137 1.5668
-0.97054 0.45007 1.1377 1.5617
-0.97525 0.45469 1.1538 1.5777
-0.97983 0.4593 1.17 1.5937
-0.97935 0.4616 1.1803 1.6017
-0.99036 0.46936 1.2047 1.6286
-0.98487 0.46937 1.2092 1.6286
-0.98057 0.46995 1.2152 1.6307
-1.0054 0.48462 1.2577 1.6816
-1.6132 0.78204 2.037 2.7136
-1.6578 0.80827 2.1129 2.8046
-1.6487 0.80855 2.1211 2.8055
-1.639 0.80853 2.1286 2.8055
-1.6287 0.80825 2.1353 2.8045
-1.6166 0.80711 2.1397 2.8005
-1.6042 0.80579 2.1435 2.796
-1.5976 0.80737 2.155 2.8014
-1.5906 0.80881 2.1661 2.8065
-1.5897 0.81343 2.1858 2.8225
-1.5789 0.81298 2.1918 2.8209
-1.568 0.81253 2.1977 2.8194
-1.558 0.81254 2.2049 2.8194
-1.5413 0.80908 2.2025 2.8074
-1.522 0.80419 2.1962 2.7904
-1.5114 0.80386 2.2022 2.7893
-1.5013 0.80387 2.2091 2.7893
-1.4838 0.79984 2.2048 2.7753
-1.4727 0.79927 2.2099 2.7733
-1.4594 0.79754 2.2119 2.7674
-1.4409 0.79289 2.2055 2.7512
-1.4308 0.7929 2.2121 2.7512
-1.4146 0.78944 2.2089 2.7393
-1.3994 0.78657 2.2073 2.7293
-1.3893 0.78657 2.2136 2.7293
-1.3767 0.78514 2.2159 2.7243
-1.3635 0.78336 2.2171 2.7182
-1.3494 0.78106 2.2168 2.7102
-1.3383 0.78049 2.2213 2.7082
-1.3237 0.7779 2.22 2.6992
-1.3136 0.77791 2.226 2.6992
-1.2972 0.77416 2.2212 2.6862
-1.2841 0.77239 2.222 2.6801
-1.273 0.77182 2.2262 2.6781
-1.261 0.77067 2.2287 2.6741
-1.2471 0.76837 2.2277 2.6661
-1.2351 0.76722 2.23 2.6622
-1.2194 0.76377 2.2256 2.6502
-1.2092 0.76373 2.231 2.65
-1.1967 0.76229 2.2323 2.645
-1.1861 0.76201 2.2369 2.6441
-1.1675 0.75653 2.2261 2.6251
-1.1569 0.75625 2.2306 2.6241
-1.1419 0.75308 2.2265 2.6131
-1.1317 0.75305 2.2315 2.613
