# .PCD v.6 - Point Cloud Data file format
FIELDS x y z range
SIZE 4 4 4 4
TYPE F F F F
COUNT 1 1 1 1
WIDTH 1655
HEIGHT 1
POINTS 1655
DATA ascii
-0.31262 0.45414 1.8656 1.9454
-0.30516 0.45549 1.8726 1.9512
-0.29743 0.45653 1.8782 1.9556
-0.29155 0.46056 1.8961 1.9729
-0.2823 0.45936 1.8924 1.9677
-0.27569 0.46252 1.9067 1.9813
-0.26975 0.46705 1.9266 2.0007
-0.26122 0.46726 1.9287 2.0016
-0.25636 0.4743 1.9589 2.0317
-0.24868 0.47643 1.9688 2.0409
-0.24043 0.4776 1.9747 2.0459
-0.2339 0.48241 1.9957 2.0665
-0.22691 0.48661 2.0142 2.0845
-0.21889 0.48891 2.0247 2.0943
-0.21223 0.49456 2.049 2.1185
-0.20453 0.4982 2.0651 2.1341
-0.1979 0.50495 2.0939 2.163
-0.18932 0.50712 2.1038 2.1723
-0.18117 0.51076 2.1197 2.1879
-0.17158 0.51055 2.1197 2.187
-0.16307 0.5137 2.1335 2.2005
-0.15447 0.51697 2.1478 2.2145
-0.14604 0.5213 2.1665 2.2331
-0.13743 0.52556 2.1848 2.2513
-0.12843 0.52885 2.1991 2.2654
-0.11933 0.53228 2.2139 2.2801
-0.1098 0.53427 2.2227 2.2886
-0.10059 0.53836 2.2402 2.3062
-0.091447 0.54376 2.2631 2.3293
-0.081328 0.54402 2.2645 2.3304
-0.07178 0.54871 2.2844 2.3505
-0.061989 0.55282 2.3018 2.3681
-0.05187 0.55507 2.3114 2.3777
-0.041933 0.5609 2.3359 2.4027
-0.03176 0.56641 2.359 2.4263
-0.021491 0.57491 2.3946 2.4627
-0.010758 0.57557 2.3974 2.4656
0 0.76509 3.1868 3.2774
0.014287 0.76439 3.1839 3.2744
0.028365 0.75879 3.1605 3.2504
0.04252 0.75832 3.1584 3.2484
0.056168 0.75132 3.129 3.2184
0.070121 0.75039 3.1248 3.2144
0.08409 0.74992 3.1225 3.2124
0.097703 0.74688 3.1095 3.1994
0.11138 0.74502 3.1012 3.1914
0.12462 0.74105 3.0842 3.1744
0.13785 0.73778 3.07 3.1604
0.15139 0.73661 3.0645 3.1554
0.16493 0.73568 3.0599 3.1514
0.17786 0.73241 3.0455 3.1374
0.19098 0.73031 3.036 3.1284
0.20329 0.72564 3.0157 3.1084
0.2157 0.7219 2.9992 3.0924
0.22872 0.7205 2.9924 3.0864
0.24198 0.72004 2.9894 3.0844
0.2554 0.72004 2.9883 3.0844
0.26811 0.71817 2.9793 3.0764
0.27891 0.71163 2.951 3.0484
0.29148 0.71 2.943 3.0414
0.30398 0.70836 2.9348 3.0344
0.31704 0.70813 2.9325 3.0334
0.33009 0.70789 2.9301 3.0324
0.34289 0.70719 2.9256 3.0294
0.35451 0.7042 2.9117 3.0166
0.36672 0.70257 2.9033 3.0096
0.37773 0.69883 2.8862 2.9936
0.39041 0.69837 2.8826 2.9916
0.40173 0.69557 2.8693 2.9796
0.41321 0.69323 2.8578 2.9696
0.42559 0.69253 2.853 2.9666
0.43824 0.6923 2.8501 2.9656
0.44875 0.68879 2.8337 2.9506
0.45755 0.68296 2.8077 2.9256
0.47014 0.68296 2.8056 2.9256
0.48273 0.68296 2.8035 2.9255
0.49479 0.68225 2.7984 2.9225
0.50735 0.68225 2.7961 2.9225
0.51811 0.67992 2.7843 2.9125
0.52641 0.67455 2.7599 2.8895
0.53878 0.67455 2.7576 2.8895
0.5502 0.67338 2.7503 2.8845
0.56136 0.67198 2.7421 2.8785
0.57326 0.67151 2.7377 2.8765
0.58452 0.67034 2.7303 2.8715
0.59552 0.66894 2.722 2.8655
0.60413 0.66497 2.7031 2.8485
0.61538 0.66404 2.6966 2.8445
0.62597 0.66245 2.6873 2.8377
0.63712 0.66151 2.6807 2.8337
0.64888 0.66123 2.6767 2.8325
0.66022 0.66058 2.6711 2.8297
0.67196 0.66034 2.6672 2.8287
0.6832 0.65964 2.6613 2.8257
0.6939 0.65847 2.6535 2.8207
0.70255 0.65544 2.6381 2.8077
0.71107 0.6524 2.6228 2.7947
0.7205 0.6503 2.6111 2.7857
0.73063 0.6489 2.6022 2.7797
0.74177 0.64843 2.597 2.7776
0.75287 0.64796 2.5918 2.7756
0.76146 0.64539 2.5782 2.7646
0.77246 0.64492 2.5728 2.7626
0.7823 0.64352 2.5638 2.7566
0.7935 0.64329 2.5593 2.7556
0.8041 0.64259 2.5529 2.7526
0.81826 0.64472 2.5578 2.7618
0.83003 0.64496 2.555 2.7628
0.84484 0.64752 2.5614 2.7738
0.88133 0.66643 2.6323 2.8548
0.89344 0.66666 2.6292 2.8558
0.90555 0.6669 2.6261 2.8568
0.91893 0.66806 2.6266 2.8617
0.9307 0.66806 2.6224 2.8617
0.94246 0.66806 2.6182 2.8617
0.94586 0.66222 2.5911 2.8367
0.94802 0.65568 2.5613 2.8087
0.94072 0.64284 2.5069 2.7537
0.92706 0.62603 2.4373 2.6817
0.93525 0.6242 2.426 2.6739
0.94011 0.62023 2.4063 2.6569
0.95089 0.62023 2.4021 2.6569
0.95949 0.61883 2.3924 2.6508
0.96911 0.61813 2.3853 2.6478
0.9798 0.61813 2.381 2.6478
0.98711 0.61602 2.3684 2.6388
0.99546 0.61462 2.3586 2.6328
1.0034 0.61298 2.3479 2.6258
1.0123 0.61205 2.3398 2.6218
1.0256 0.61372 2.3416 2.629
1.0318 0.61115 2.3271 2.618
1.041 0.61045 2.3198 2.6149
1.0494 0.60928 2.3107 2.6099
1.0593 0.60904 2.3051 2.6089
1.0693 0.60881 2.2994 2.6079
1.0729 0.60507 2.2805 2.5919
1.0832 0.60507 2.2757 2.5919
1.0934 0.60507 2.2708 2.5919
1.1006 0.60347 2.2598 2.585
1.1107 0.60346 2.2549 2.585
1.1204 0.60323 2.249 2.584
1.1305 0.60323 2.2439 2.584
1.1405 0.60322 2.2388 2.584
1.147 0.60135 2.2268 2.576
1.1556 0.60065 2.219 2.573
1.1647 0.60018 2.2121 2.571
1.1811 0.60349 2.219 2.5851
1.191 0.60348 2.2136 2.5851
1.1958 0.60091 2.1989 2.5741
1.1996 0.59788 2.1824 2.5611
1.2093 0.59788 2.177 2.5611
1.2191 0.59787 2.1715 2.5611
1.2288 0.59787 2.166 2.5611
1.2351 0.59623 2.1546 2.5541
1.2419 0.59487 2.1441 2.5482
1.2515 0.59486 2.1385 2.5482
1.2611 0.59486 2.1328 2.5482
1.2717 0.59533 2.1288 2.5502
1.2812 0.59532 2.1231 2.5502
1.2907 0.59532 2.1173 2.5502
1.2997 0.59509 2.1106 2.5491
1.3077 0.59442 2.1024 2.5463
1.3155 0.59371 2.0941 2.5433
1.3239 0.59324 2.0865 2.5413
1.3332 0.59324 2.0805 2.5412
1.3425 0.59324 2.0745 2.5412
1.3518 0.59324 2.0684 2.5412
1.3596 0.59257 2.06 2.5384
1.3688 0.59257 2.0539 2.5383
1.378 0.59256 2.0477 2.5383
1.3844 0.59139 2.0375 2.5333
1.3902 0.58999 2.0264 2.5273
1.3988 0.58975 2.0194 2.5263
1.4084 0.59002 2.014 2.5274
1.4174 0.59001 2.0076 2.5274
1.4264 0.59001 2.0012 2.5274
1.4348 0.58977 1.994 2.5264
1.4409 0.5886 1.9836 2.5214
1.4538 0.59025 1.9827 2.5284
1.4668 0.5919 1.9816 2.5355
1.4757 0.5919 1.975 2.5355
1.4828 0.59119 1.966 2.5325
1.4898 0.59049 1.957 2.5295
1.5001 0.59109 1.9523 2.532
1.5103 0.59168 1.9475 2.5346
1.5226 0.59308 1.9453 2.5405
1.5313 0.59308 1.9384 2.5405
1.5404 0.5932 1.932 2.5411
1.549 0.5932 1.925 2.5411
1.5623 0.59496 1.9237 2.5486
1.5733 0.59589 1.9197 2.5526
1.6185 0.60966 1.9568 2.6116
1.6724 0.6266 2.0037 2.6841
1.6949 0.63163 2.0122 2.7057
1.7039 0.63162 2.0046 2.7057
1.7129 0.63162 1.9969 2.7056
1.7174 0.62999 1.9841 2.6987
1.725 0.62954 1.9749 2.6967
1.7339 0.62953 1.9671 2.6967
1.7463 0.63083 1.9634 2.7023
1.7554 0.63095 1.9559 2.7028
1.7642 0.63095 1.948 2.7028
1.7722 0.63071 1.9393 2.7018
1.778 0.62967 1.9282 2.6973
1.7883 0.63026 1.922 2.6998
1.7969 0.63026 1.9139 2.6998
1.8081 0.6312 1.9087 2.7039
1.8177 0.63155 1.9016 2.7053
1.8259 0.63144 1.8931 2.7049
1.8344 0.63144 1.8849 2.7049
1.8449 0.63215 1.8787 2.7079
1.8581 0.63379 1.8753 2.7149
1.8637 0.63285 1.8642 2.7109
1.8752 0.63391 1.8589 2.7155
1.886 0.63474 1.8529 2.719
1.8943 0.63473 1.8444 2.719
1.9025 0.63473 1.8358 2.719
1.9136 0.63569 1.8301 2.7231
1.9218 0.63568 1.8214 2.7231
1.9321 0.63638 1.8148 2.726
1.9409 0.63661 1.8067 2.727
1.9441 0.635 1.7935 2.7201
1.9564 0.6364 1.7887 2.7261
1.9644 0.63639 1.7798 2.7261
1.9745 0.6371 1.773 2.7291
1.9847 0.63781 1.7661 2.7322
1.9933 0.63804 1.7578 2.7332
2.0048 0.63922 1.752 2.7382
2.0171 0.64063 1.7469 2.7442
2.0264 0.64109 1.7391 2.7462
nan nan nan -inf
nan nan nan -inf
nan nan nan -inf
nan nan nan -inf
nan nan nan -inf
nan nan nan -inf
nan nan nan -inf
nan nan nan -inf
nan nan nan -inf
nan nan nan -inf
nan nan nan -inf
nan nan nan -inf
nan nan nan -inf
nan nan nan -inf
-2.3558 0.76496 2.055 3.2184
-2.1901 0.71397 1.9279 3.0038
-2.1534 0.70481 1.9128 2.9653
-2.1449 0.70481 1.9225 2.9653
-2.1358 0.70469 1.9318 2.9648
-2.1396 0.70884 1.9528 2.9822
-2.1966 0.73071 2.0229 3.0743
-2.6553 0.88698 2.4675 3.7317
-2.6658 0.89422 2.4996 3.7622
-2.6545 0.89422 2.5116 3.7622
-2.6386 0.89267 2.5191 3.7557
-2.6255 0.89206 2.5292 3.7531
-2.6141 0.89207 2.541 3.7531
-2.6145 0.89611 2.5643 3.7702
-2.6008 0.89539 2.5739 3.7671
-2.5878 0.8949 2.5842 3.7651
-2.5749 0.89443 2.5944 3.7631
-2.5669 0.89573 2.6097 3.7685
-2.5582 0.89679 2.6243 3.773
-2.5464 0.89679 2.6358 3.773
-2.5345 0.8968 2.6472 3.773
-2.5226 0.8968 2.6586 3.773
-2.5139 0.89798 2.6734 3.778
-2.5092 0.90058 2.6925 3.789
-2.497 0.90059 2.7037 3.789
-2.4835 0.9001 2.7134 3.7869
-2.4726 0.90057 2.726 3.7889
-2.4603 0.90057 2.7371 3.7889
-2.448 0.90057 2.7481 3.7889
-2.4408 0.90247 2.7649 3.7969
-2.4315 0.90364 2.7794 3.8018
-2.419 0.90365 2.7903 3.8019
-2.4137 0.90637 2.8096 3.8133
-2.407 0.90862 2.8274 3.8228
-2.3943 0.90862 2.8382 3.8228
-2.3815 0.90863 2.849 3.8228
-2.3671 0.90802 2.8577 3.8203
-2.3552 0.90837 2.8694 3.8217
-2.3447 0.90932 2.883 3.8257
-2.3348 0.91051 2.8973 3.8307
-2.3229 0.91098 2.9092 3.8327
-2.3062 0.90954 2.915 3.8267
-2.2979 0.91145 2.9315 3.8347
-2.2859 0.91193 2.9433 3.8367
-2.2768 0.91359 2.959 3.8437
-2.2699 0.9162 2.9776 3.8547
-2.253 0.91476 2.9831 3.8486
-1.4325 0.58509 1.9145 2.4616
-1.3978 0.5744 1.8858 2.4166
-1.3577 0.56133 1.849 2.3616
-1.3268 0.55193 1.824 2.3221
-1.3024 0.54514 1.8075 2.2935
-1.2756 0.5373 1.7872 2.2606
-1.2665 0.53683 1.7913 2.2586
-1.2584 0.53683 1.797 2.2586
-1.2515 0.53731 1.8043 2.2606
-1.2411 0.53633 1.8066 2.2565
-1.2379 0.53847 1.8194 2.2655
-1.2335 0.54014 1.8305 2.2725
-1.2258 0.54038 1.8369 2.2735
-1.2181 0.54062 1.8432 2.2745
-1.2125 0.54181 1.8527 2.2795
-1.2099 0.54439 1.867 2.2904
-1.2015 0.54439 1.8724 2.2904
-1.1936 0.54463 1.8786 2.2914
-1.1872 0.54559 1.8873 2.2954
-1.1792 0.54583 1.8934 2.2964
-1.1753 0.54797 1.9062 2.3054
-1.1667 0.54794 1.9113 2.3053
-1.1616 0.5496 1.9224 2.3123
-1.1564 0.55127 1.9334 2.3193
-1.1497 0.55222 1.9419 2.3233
-1.1508 0.55698 1.9638 2.3433
-1.1532 0.56245 1.9883 2.3664
-1.1273 0.5541 1.9639 2.3312
-1.1275 0.55862 1.985 2.3502
-1.1243 0.56147 2.0002 2.3622
-1.1186 0.56314 2.0112 2.3692
-1.1845 0.60117 2.1523 2.5293
-1.1934 0.61068 2.1918 2.5693
-1.1836 0.61068 2.1971 2.5693
-1.1737 0.61068 2.2024 2.5693
-1.1452 0.6009 2.1723 2.5281
-1.1359 0.60114 2.1783 2.5292
-1.1341 0.60542 2.1989 2.5472
-1.1242 0.60543 2.204 2.5472
-1.1117 0.604 2.2039 2.5412
-1.0987 0.60234 2.2027 2.5342
-1.0918 0.60401 2.2138 2.5412
-1.0819 0.60401 2.2187 2.5412
-1.0739 0.60516 2.2277 2.5461
-1.0652 0.60588 2.2352 2.5491
-1.0568 0.60683 2.2435 2.5531
-1.0467 0.60683 2.2482 2.5531
-1.0427 0.6104 2.2661 2.5681
-1.0345 0.61159 2.2752 2.5731
-1.0271 0.61325 2.286 2.5801
-1.6607 1.0016 3.7412 4.214
-1.6446 1.0021 3.7504 4.216
-1.632 1.0047 3.7675 4.227
-1.6151 1.0047 3.7748 4.227
-1.5981 1.0047 3.7821 4.227
-1.5961 1.0142 3.8251 4.267
-1.5841 1.0175 3.8448 4.281
-1.5668 1.0175 3.8519 4.281
-1.5607 1.0249 3.8868 4.312
-1.5436 1.0251 3.8947 4.313
-1.5281 1.0265 3.9069 4.3189
-1.5172 1.0311 3.9309 4.3379
-1.5002 1.0315 3.9395 4.3399
-1.4897 1.0365 3.9653 4.3609
-1.4766 1.0398 3.9847 4.3749
-1.4617 1.042 3.9995 4.3839
-1.449 1.0458 4.0207 4.3999
-1.4332 1.0475 4.0336 4.4069
-1.4208 1.0517 4.0565 4.4249
-1.4057 1.0541 4.072 4.4349
-1.3899 1.056 4.0856 4.4429
-1.3802 1.0627 4.1176 4.4709
-1.3574 1.0593 4.1107 4.4568
-1.3449 1.0641 4.1353 4.4768
-1.3284 1.0657 4.1477 4.4838
-1.3188 1.0731 4.1824 4.5148
-1.3055 1.0776 4.2059 4.5338
-1.2886 1.0793 4.2182 4.5408
-1.2744 1.0833 4.2398 4.5578
-1.2575 1.0852 4.2529 4.5658
-1.2384 1.0852 4.2586 4.5658
-1.2193 1.0852 4.2641 4.5658
-1.2001 1.0852 4.2695 4.5658
-1.1362 1.0441 4.1129 4.3928
-1.093 1.0211 4.027 4.2958
-1.0691 1.0156 4.0103 4.2728
-1.043 1.0077 3.9841 4.2398
-1.0183 1.0011 3.9624 4.2118
-0.99834 0.99892 3.9583 4.2027
-0.97262 0.99084 3.9307 4.1687
-0.94877 0.98442 3.9095 4.1417
-0.92333 0.9761 3.8807 4.1067
-0.90236 0.9723 3.8696 4.0907
-0.88367 0.97087 3.868 4.0847
-0.86332 0.96755 3.8586 4.0707
-0.83974 0.96042 3.834 4.0407
-0.81518 0.95186 3.8036 4.0047
-0.39199 0.46751 1.8699 1.9669
-0.38448 0.46861 1.8761 1.9716
-0.37209 0.46367 1.858 1.9508
-0.36551 0.46593 1.8687 1.9603
-0.3529 0.46044 1.8483 1.9372
-0.34502 0.461 1.8521 1.9396
-0.33639 0.46059 1.852 1.9378
-0.32786 0.4603 1.8523 1.9366
-0.32023 0.46129 1.8577 1.9407
-0.31201 0.46148 1.8599 1.9415
-0.30515 0.46376 1.8705 1.9511
-0.29751 0.46496 1.8767 1.9562
-0.28928 0.46529 1.8793 1.9576
-0.28292 0.46873 1.8945 1.9721
-0.27562 0.47081 1.9042 1.9808
-0.27048 0.47683 1.9298 2.0061
-0.26116 0.47564 1.9262 2.0011
-0.25476 0.4799 1.9446 2.0191
-0.24814 0.48404 1.9625 2.0365
-0.24051 0.48643 1.9733 2.0465
-0.23314 0.48957 1.9871 2.0597
-0.22697 0.4956 2.0126 2.0851
-0.21953 0.49924 2.0284 2.1004
-0.21131 0.50135 2.0379 2.1093
-0.20386 0.5056 2.0561 2.1272
-0.19601 0.50921 2.0717 2.1424
-0.18804 0.51284 2.0873 2.1576
-0.18022 0.51733 2.1065 2.1765
-0.1716 0.51987 2.1176 2.1872
-0.16357 0.52465 2.1378 2.2073
-0.15512 0.52857 2.1545 2.2238
-0.14669 0.53313 2.1738 2.243
-0.13702 0.5335 2.1759 2.2445
-0.12833 0.53804 2.195 2.2637
-0.11863 0.53877 2.1986 2.2667
-0.10989 0.54439 2.222 2.2904
-0.10031 0.54663 2.2316 2.2998
-0.090794 0.54969 2.2446 2.3127
-0.081332 0.55392 2.2622 2.3305
-0.071428 0.55594 2.2708 2.339
-0.061687 0.56012 2.2882 2.3566
-0.051911 0.5656 2.3108 2.3796
-0.041758 0.56871 2.3237 2.3927
-0.031757 0.57665 2.3563 2.4261
-0.021574 0.5876 2.4012 2.4722
-0.01074 0.58501 2.3907 2.4613
0 0.77524 3.1681 3.2616
0.014214 0.77428 3.1642 3.2576
0.028419 0.77405 3.1631 3.2566
0.042588 0.77333 3.1601 3.2536
0.056783 0.77333 3.1598 3.2536
0.070082 0.76359 3.1197 3.2126
0.08365 0.75955 3.1029 3.1956
0.097465 0.7586 3.0986 3.1916
0.11117 0.75717 3.0923 3.1856
0.12491 0.75622 3.0879 3.1816
0.13843 0.75432 3.0795 3.1736
0.15178 0.75194 3.0692 3.1636
0.16541 0.75123 3.0656 3.1606
0.1785 0.74838 3.0531 3.1486
0.19123 0.74457 3.0368 3.1326
0.20468 0.74386 3.033 3.1296
0.21739 0.74077 3.0195 3.1166
0.23088 0.74053 3.0175 3.1156
0.24255 0.73483 2.9932 3.0916
0.25541 0.73316 2.9853 3.0846
0.26812 0.73126 2.9764 3.0766
0.28103 0.73007 2.9703 3.0716
0.29322 0.72722 2.9574 3.0596
0.3055 0.72484 2.9464 3.0496
0.31831 0.72389 2.9411 3.0456
0.33022 0.72104 2.9281 3.0336
0.34291 0.72009 2.9227 3.0296
0.35451 0.717 2.9086 3.0166
0.36672 0.71533 2.9002 3.0096
0.37772 0.71153 2.8831 2.9936
0.39041 0.71105 2.8795 2.9916
0.40121 0.70729 2.8625 2.9758
0.41281 0.70515 2.852 2.9667
0.42476 0.70373 2.8444 2.9607
0.43605 0.70135 2.8328 2.9507
0.44847 0.70087 2.8289 2.9487
0.46008 0.69921 2.8202 2.9417
0.47161 0.69755 2.8113 2.9347
0.48374 0.69683 2.8063 2.9317
0.49347 0.69279 2.7879 2.9147
0.50598 0.69279 2.7856 2.9147
0.51849 0.69279 2.7833 2.9147
0.5308 0.69255 2.78 2.9137
0.54049 0.68898 2.7633 2.8987
0.55004 0.68542 2.7465 2.8837
0.56159 0.68447 2.7402 2.8797
0.5717 0.68185 2.7272 2.8687
0.58252 0.68019 2.718 2.8617
0.59472 0.68019 2.7153 2.8617
0.60691 0.68019 2.7126 2.8617
0.61671 0.67757 2.6994 2.8507
0.62596 0.67448 2.6844 2.8377
0.63711 0.67353 2.6777 2.8337
0.64913 0.67353 2.6748 2.8337
0.65791 0.67024 2.6588 2.8198
0.66985 0.67024 2.6559 2.8198
0.68081 0.66929 2.6491 2.8158
0.6927 0.66928 2.646 2.8158
0.70382 0.66857 2.64 2.8128
0.71008 0.66334 2.6162 2.7908
0.72182 0.66334 2.613 2.7908
0.73145 0.66144 2.6022 2.7828
0.74286 0.6612 2.598 2.7818
0.75398 0.66072 2.5927 2.7798
0.76452 0.65977 2.5856 2.7758
0.77556 0.65929 2.5803 2.7738
0.78402 0.65668 2.5665 2.7628
0.79525 0.65644 2.5621 2.7618
0.80675 0.65644 2.5585 2.7618
0.81562 0.65434 2.5466 2.7529
0.82915 0.656 2.5494 2.7599
0.84973 0.66313 2.5733 2.7899
0.88289 0.67976 2.6339 2.8599
0.89502 0.68 2.6309 2.8609
0.90683 0.68 2.6268 2.8609
0.9183 0.67976 2.6218 2.8599
0.92616 0.67691 2.6066 2.8479
0.9372 0.67643 2.6006 2.8459
0.94387 0.67286 2.5827 2.8309
0.95445 0.67215 2.5757 2.8279
0.93902 0.65337 2.4995 2.7489
0.92915 0.63887 2.4399 2.6879
0.93211 0.63344 2.415 2.665
0.94012 0.63154 2.4036 2.657
0.94947 0.63058 2.3957 2.653
0.96022 0.63058 2.3914 2.653
0.96985 0.62987 2.3844 2.65
0.98055 0.62987 2.38 2.65
0.98936 0.62868 2.3711 2.645
0.99697 0.62677 2.3594 2.637
1.0064 0.62606 2.3522 2.634
1.0158 0.62534 2.345 2.631
1.0248 0.62443 2.337 2.6271
1.0345 0.62395 2.3306 2.6251
1.0398 0.62086 2.3144 2.6121
1.047 0.61896 2.3026 2.6041
1.0573 0.61895 2.2979 2.6041
1.0676 0.61895 2.2931 2.6041
1.0742 0.61681 2.2804 2.5951
1.0844 0.61681 2.2755 2.5951
1.0948 0.61694 2.2711 2.5956
1.1036 0.61613 2.2632 2.5922
1.1124 0.61541 2.2556 2.5892
1.1191 0.61351 2.2436 2.5812
1.1292 0.61351 2.2385 2.5812
1.1383 0.61303 2.2317 2.5792
1.1492 0.6135 2.2283 2.5812
1.161 0.61445 2.2265 2.5851
1.1688 0.61328 2.2171 2.5802
1.1755 0.61163 2.2058 2.5733
1.1854 0.61163 2.2005 2.5733
1.1948 0.61139 2.1943 2.5723
1.1995 0.60874 2.1794 2.5611
1.2121 0.6102 2.1793 2.5672
1.2186 0.60853 2.1679 2.5602
1.2269 0.60782 2.1598 2.5572
1.2368 0.60795 2.1548 2.5578
1.2438 0.60666 2.1446 2.5524
1.2535 0.60666 2.139 2.5523
1.2611 0.6057 2.13 2.5483
1.2706 0.6057 2.1243 2.5483
1.2796 0.60546 2.1177 2.5473
1.2886 0.60522 2.1111 2.5463
1.3002 0.60619 2.1087 2.5504
1.3076 0.60525 2.0996 2.5464
1.316 0.60477 2.092 2.5444
1.3254 0.60477 2.0861 2.5444
1.3347 0.60477 2.0801 2.5444
1.344 0.60476 2.0741 2.5444
1.3526 0.60442 2.0668 2.5429
1.3611 0.60408 2.0596 2.5415
1.3719 0.60479 2.0558 2.5445
1.3811 0.60479 2.0497 2.5445
1.3903 0.60478 2.0434 2.5445
1.394 0.6024 2.0291 2.5345
1.4028 0.6023 2.0225 2.534
1.4139 0.60315 2.019 2.5376
1.4201 0.60196 2.0087 2.5326
1.4235 0.59958 1.9944 2.5226
1.4324 0.59957 1.9879 2.5225
1.4431 0.6003 1.9839 2.5256
1.4537 0.60102 1.9798 2.5286
1.4626 0.60102 1.9732 2.5286
1.4715 0.60102 1.9666 2.5286
1.4803 0.60101 1.96 2.5286
1.4941 0.60305 1.9599 2.5372
1.5062 0.60436 1.9574 2.5427
1.5149 0.60436 1.9506 2.5427
1.5243 0.6046 1.9446 2.5437
1.5309 0.60377 1.9351 2.5402
1.5375 0.60295 1.9255 2.5368
1.5461 0.60295 1.9186 2.5368
1.5547 0.60295 1.9116 2.5367
1.5809 0.60973 1.9261 2.5653
1.6338 0.62672 1.9724 2.6368
1.672 0.6379 2.0001 2.6838
1.6909 0.6417 2.0045 2.6998
1.7003 0.64183 1.9972 2.7003
1.7092 0.64183 1.9896 2.7003
1.7185 0.64196 1.9823 2.7009
1.7286 0.64243 1.976 2.7028
1.7369 0.6422 1.9675 2.7019
1.7451 0.64197 1.959 2.7009
1.7545 0.64221 1.9518 2.7019
1.7632 0.6422 1.9439 2.7019
1.7739 0.64293 1.9382 2.7049
1.7866 0.64436 1.9345 2.711
1.7953 0.64436 1.9264 2.711
1.8026 0.64389 1.917 2.709
1.8086 0.64295 1.906 2.705
1.8184 0.64342 1.8993 2.707
1.8256 0.64294 1.8897 2.705
1.8409 0.64533 1.8885 2.715
1.8534 0.64676 1.8844 2.7211
1.8584 0.64557 1.8726 2.7161
1.8658 0.64523 1.8632 2.7146
1.8746 0.64535 1.8552 2.7152
1.8849 0.64606 1.8487 2.7181
1.896 0.64701 1.843 2.7221
1.9039 0.6469 1.8341 2.7217
1.9118 0.64679 1.8252 2.7212
1.9193 0.64655 1.8159 2.7202
1.9274 0.64654 1.8073 2.7202
1.9392 0.64776 1.802 2.7253
1.9501 0.64871 1.7959 2.7293
1.9581 0.6487 1.7871 2.7292
1.9651 0.64836 1.7773 2.7278
1.972 0.64801 1.7675 2.7263
1.9871 0.65038 1.7651 2.7363
2.0005 0.65217 1.761 2.7438
2.0096 0.65253 1.753 2.7454
2.0167 0.65229 1.7433 2.7443
2.0256 0.65266 1.7352 2.7459
nan nan nan -inf
nan nan nan -inf
nan nan nan -inf
nan nan nan -inf
nan nan nan -inf
nan nan nan -inf
nan nan nan -inf
nan nan nan -inf
nan nan nan -inf
nan nan nan -inf
nan nan nan -inf
nan nan nan -inf
nan nan nan -inf
-2.4167 0.79582 2.0851 3.2896
-2.2529 0.74479 1.9616 3.0786
-2.1536 0.71476 1.8922 2.9545
-2.1501 0.71644 1.9063 2.9615
-2.1429 0.71692 1.9173 2.9634
-2.1343 0.71693 1.9269 2.9635
-2.127 0.7174 1.9378 2.9654
-2.1247 0.71957 1.9532 2.9744
-2.5826 0.87828 2.3956 3.6304
-2.6574 0.90754 2.4874 3.7514
-2.6504 0.90898 2.5033 3.7573
-2.6413 0.90971 2.5172 3.7604
-2.6306 0.90994 2.5297 3.7613
-2.6206 0.91042 2.5428 3.7633
-2.6056 0.90921 2.5512 3.7583
-2.5942 0.90922 2.5629 3.7583
-2.5928 0.91282 2.5848 3.7732
-2.5826 0.91331 2.5978 3.7752
-2.5695 0.91283 2.608 3.7732
-2.555 0.91185 2.6167 3.7692
-2.5547 0.91595 2.64 3.7861
-2.5428 0.91596 2.6515 3.7862
-2.5308 0.91596 2.6629 3.7862
-2.4896 0.90532 2.6432 3.7422
-2.5067 0.91593 2.6855 3.7861
-2.4946 0.91594 2.6967 3.7861
-2.4825 0.91594 2.7079 3.7861
-2.4595 0.91194 2.7072 3.7696
-2.4632 0.91786 2.7359 3.794
-2.4593 0.92101 2.7563 3.807
-2.4468 0.92101 2.7674 3.8071
-2.4238 0.91701 2.7663 3.7905
-2.4135 0.91785 2.7797 3.794
-2.3998 0.91737 2.7891 3.792
-2.3944 0.92014 2.8083 3.8035
-2.3774 0.91845 2.8138 3.7965
-2.3762 0.92291 2.8382 3.8149
-2.3634 0.92292 2.8489 3.8149
-2.3456 0.92097 2.8535 3.8069
-2.3622 0.93257 2.9001 3.8549
-2.3491 0.93258 2.9107 3.8549
-2.336 0.93258 2.9212 3.8549
-2.3276 0.93449 2.9377 3.8628
-2.3144 0.93449 2.9482 3.8628
-2.3011 0.9345 2.9585 3.8628
-2.2807 0.9316 2.9596 3.8508
-2.2673 0.9316 2.9699 3.8508
-2.2604 0.93425 2.9885 3.8618
-2.2533 0.9369 3.0072 3.8727
-2.2403 0.93715 3.0181 3.8738
-2.2262 0.93691 3.0273 3.8728
-2.2125 0.93691 3.0373 3.8728
-1.302 0.55478 1.8044 2.2932
-1.2755 0.54691 1.7845 2.2607
-1.2675 0.54691 1.7903 2.2607
-1.2595 0.54692 1.796 2.2607
-1.2541 0.54813 1.8056 2.2657
-1.2487 0.54933 1.8152 2.2707
-1.2416 0.5498 1.8223 2.2726
-1.235 0.55052 1.8303 2.2756
-1.2273 0.55077 1.8367 2.2766
-1.2266 0.55416 1.8535 2.2907
-1.2464 0.56698 1.902 2.3437
-1.2093 0.55389 1.8636 2.2895
-1.2045 0.55558 1.8747 2.2965
-1.1998 0.55728 1.8858 2.3036
-1.1939 0.55849 1.8953 2.3086
-1.1935 0.56237 1.9139 2.3246
-1.1854 0.56261 1.92 2.3256
-1.1671 0.55798 1.9095 2.3065
-1.164 0.56064 1.9239 2.3175
-1.1718 0.56863 1.9566 2.3505
-1.3684 0.66903 2.3082 2.7655
-1.602 0.78927 2.7303 3.2625
-1.5898 0.78927 2.7375 3.2625
-1.5774 0.78927 2.7446 3.2625
-1.2407 0.6257 2.1814 2.5864
-1.2309 0.6257 2.187 2.5864
-1.2149 0.62256 2.1815 2.5734
-1.2051 0.62256 2.1869 2.5734
-1.1953 0.62257 2.1923 2.5734
-1.1854 0.62257 2.1977 2.5734
-1.1755 0.62257 2.203 2.5734
-1.1637 0.62157 2.2047 2.5693
-1.1515 0.62036 2.2056 2.5643
-1.1354 0.61698 2.1987 2.5503
-1.1251 0.61674 2.2029 2.5493
-1.1147 0.6165 2.2071 2.5483
-1.1004 0.61408 2.2034 2.5383
-1.0879 0.61263 2.2031 2.5323
-1.078 0.61263 2.208 2.5324
-1.0756 0.61695 2.2285 2.5502
-1.0689 0.61889 2.2403 2.5582
-1.0601 0.61962 2.2477 2.5612
-1.05 0.61962 2.2525 2.5612
-1.0398 0.61962 2.2572 2.5612
-1.0297 0.61962 2.2618 2.5613
-1.0239 0.62229 2.2762 2.5723
-1.6642 1.0217 3.7447 4.2233
-1.6489 1.0226 3.7555 4.2271
-1.6339 1.0238 3.7674 4.2321
-1.617 1.0238 3.7747 4.2321
-1.5981 1.0226 3.7774 4.2271
-1.5889 1.0277 3.8034 4.2481
-1.5822 1.0345 3.8356 4.2762
-1.5741 1.0405 3.8652 4.3012
-1.557 1.0408 3.8731 4.3022
-1.545 1.0444 3.8936 4.3172
-1.5336 1.0486 3.9163 4.3346
-1.52 1.0514 3.9335 4.346
-1.5033 1.0521 3.943 4.349
-1.4856 1.0521 3.9497 4.349
-1.4759 1.0579 3.9782 4.3731
-1.465 1.063 4.0039 4.3941
-1.4513 1.0662 4.0224 4.4071
-1.4354 1.0679 4.0352 4.4141
-1.4195 1.0696 4.0481 4.4211
-1.4023 1.0703 4.0572 4.4241
-1.3934 1.0775 4.091 4.4541
-1.3824 1.0833 4.1193 4.4781
-1.3668 1.0857 4.1346 4.4879
-1.3518 1.0886 4.1517 4.4999
-1.3349 1.0901 4.1633 4.5059
-1.3223 1.0952 4.1887 4.527
-1.3061 1.0973 4.203 4.536
-1.2903 1.1 4.219 4.547
-1.2766 1.1046 4.2424 4.566
-1.26 1.1068 4.2565 4.575
-1.2409 1.1068 4.2621 4.575
-1.2198 1.1051 4.2611 4.568
-1.2006 1.1051 4.2666 4.568
-1.1434 1.0695 4.1345 4.421
-1.0971 1.0432 4.0375 4.312
-1.0672 1.0318 3.9984 4.265
-1.0425 1.0253 3.9778 4.238
-1.0183 1.0189 3.9578 4.2118
-0.99741 1.0158 3.9501 4.1988
-0.97427 1.0102 3.9329 4.1759
-0.94993 1.0032 3.9099 4.1469
-0.92762 0.99814 3.8943 4.1259
-0.90282 0.99015 3.8673 4.0929
-0.88326 0.98773 3.8619 4.0829
-0.85846 0.97927 3.8327 4.0479
-0.83852 0.97612 3.8242 4.0349
-0.81663 0.97056 3.8061 4.0119
-0.39344 0.47762 1.8748 1.9743
-0.38489 0.47747 1.8759 1.9737
-0.37621 0.47716 1.8765 1.9724
-0.36511 0.47372 1.8646 1.9581
-0.35471 0.47105 1.8557 1.9471
-0.3463 0.47097 1.8569 1.9468
-0.33711 0.46981 1.8539 1.942
-0.32907 0.47024 1.8571 1.9437
-0.32001 0.4692 1.8545 1.9395
-0.31205 0.46978 1.8582 1.9419
-0.30483 0.47153 1.8665 1.9491
-0.29706 0.47253 1.8718 1.9533
-0.28996 0.47468 1.8816 1.9621
-0.28277 0.47684 1.8915 1.9711
-0.27549 0.47897 1.9012 1.9798
-0.26804 0.48095 1.9103 1.988
-0.26077 0.48341 1.9212 1.9982
-0.25334 0.48573 1.9316 2.0078
-0.2496 0.49555 1.9718 2.0484
-0.23874 0.49146 1.9566 2.0315
-0.23202 0.4959 1.9754 2.0498
-0.22579 0.50181 1.9999 2.0743
-0.21775 0.50403 2.0098 2.0834
-0.21085 0.50919 2.0313 2.1048
-0.20375 0.51432 2.0527 2.126
-0.19556 0.51708 2.0646 2.1374
-0.18727 0.51985 2.0766 2.1488
-0.17957 0.52464 2.0965 2.1686
-0.17211 0.53073 2.1217 2.1938
-0.16189 0.52851 2.1135 2.1846
-0.15441 0.53554 2.1424 2.2137
-0.14635 0.54137 2.1664 2.2378
-0.13641 0.54059 2.1639 2.2346
-0.12771 0.54497 2.182 2.2527
-0.1187 0.5487 2.1975 2.2681
-0.10946 0.55194 2.211 2.2815
-0.099992 0.55458 2.2221 2.2924
-0.090892 0.56009 2.2446 2.3152
-0.080935 0.56104 2.2488 2.3191
-0.071156 0.56369 2.2597 2.33
-0.061778 0.57094 2.2891 2.36
-0.051889 0.57544 2.3074 2.3786
-0.041789 0.57927 2.3229 2.3944
-0.03178 0.58735 2.3555 2.4278
-0.02152 0.59658 2.3927 2.466
-0.010802 0.59887 2.4019 2.4755
0 0.60173 2.4134 2.4873
0.014241 0.78958 3.1668 3.2638
0.028455 0.78886 3.1638 3.2608
0.042564 0.78668 3.1549 3.2518
0.056646 0.78523 3.1489 3.2458
0.070217 0.77869 3.1224 3.2188
0.084205 0.77821 3.1201 3.2168
0.098021 0.77652 3.1129 3.2098
0.11108 0.76998 3.0862 3.1828
0.12487 0.7695 3.0838 3.1808
0.13822 0.7666 3.0715 3.1688
0.15203 0.7666 3.0709 3.1688
0.1651 0.76321 3.0566 3.1548
0.17805 0.75982 3.0423 3.1408
0.19039 0.7545 3.0201 3.1188
0.20345 0.75256 3.0115 3.1108
0.21678 0.75184 3.0077 3.1078
0.2303 0.75184 3.0067 3.1078
0.24264 0.74821 2.9911 3.0928
0.25543 0.74627 2.9822 3.0848
0.26857 0.74555 2.9781 3.0818
0.28178 0.74506 2.975 3.0798
0.29324 0.74022 2.9544 3.0598
0.30542 0.73756 2.9424 3.0488
0.31697 0.73369 2.9256 3.0328
0.32947 0.73224 2.9183 3.0268
0.3418 0.73055 2.9101 3.0198
0.35465 0.73006 2.9066 3.0178
0.36686 0.72837 2.8982 3.0108
0.37901 0.72667 2.8898 3.0038
0.39109 0.72498 2.8813 2.9968
0.40121 0.7199 2.8593 2.9758
0.41281 0.71772 2.8489 2.9667
0.42475 0.71627 2.8412 2.9607
0.43637 0.71437 2.8318 2.9529
0.44864 0.71365 2.8269 2.9499
0.46104 0.71316 2.8229 2.9479
0.47373 0.71316 2.8208 2.9479
0.48344 0.70881 2.8015 2.9299
0.49603 0.70881 2.7993 2.9299
0.50288 0.70082 2.7655 2.8969
0.51531 0.70082 2.7632 2.8969
0.52719 0.7001 2.758 2.8939
0.53865 0.69889 2.7508 2.8889
0.5493 0.69671 2.7398 2.8799
0.55966 0.69429 2.7278 2.8699
0.57172 0.69404 2.7243 2.8689
0.58254 0.69235 2.7151 2.8619
0.59454 0.69211 2.7115 2.8609
0.60482 0.68993 2.7002 2.8519
0.6163 0.6892 2.6947 2.8489
0.62753 0.68823 2.6881 2.8449
0.63759 0.68606 2.6767 2.8359
0.6471 0.68339 2.6635 2.8249
0.6579 0.68218 2.6558 2.8198
0.66893 0.68125 2.6492 2.816
0.68011 0.68053 2.6434 2.813
0.69051 0.67908 2.6346 2.807
0.7016 0.67835 2.6287 2.804
0.71316 0.67811 2.6246 2.803
0.71978 0.67327 2.6026 2.783
0.7299 0.67181 2.5938 2.777
0.74102 0.67133 2.5886 2.775
0.75211 0.67084 2.5834 2.773
0.76261 0.66987 2.5762 2.769
0.77307 0.66891 2.569 2.765
0.78319 0.66769 2.5609 2.76
0.79297 0.66624 2.5518 2.754
0.80415 0.666 2.5473 2.753
0.81559 0.666 2.5436 2.7529
0.83037 0.6687 2.5502 2.7641
0.85097 0.67595 2.5741 2.7941
0.88507 0.69361 2.6374 2.8671
0.89692 0.69361 2.6334 2.8671
0.90875 0.69361 2.6293 2.8671
0.91382 0.68853 2.606 2.8461
0.91349 0.67957 2.568 2.8091
0.92404 0.67885 2.5611 2.8061
0.93021 0.67497 2.5423 2.7901
0.92915 0.66602 2.5045 2.753
0.93903 0.66505 2.4966 2.749
0.92469 0.64717 2.4254 2.6751
0.93177 0.64452 2.4113 2.6642
0.9426 0.64452 2.4071 2.6642
0.95234 0.6438 2.4001 2.6612
0.96203 0.64307 2.3931 2.6582
0.97205 0.64258 2.3869 2.6562
0.9824 0.64234 2.3816 2.6552
0.99273 0.6421 2.3763 2.6541
0.99622 0.6375 2.3548 2.6351
1.0049 0.63629 2.3458 2.6301
1.0143 0.63558 2.3387 2.6272
1.024 0.63511 2.3324 2.6253
1.0345 0.63511 2.3277 2.6253
1.045 0.63511 2.3231 2.6253
1.055 0.63486 2.3175 2.6242
1.0634 0.63365 2.3083 2.6192
1.0709 0.63196 2.2973 2.6122
1.0791 0.63074 2.2881 2.6072
1.0865 0.62905 2.2771 2.6002
1.0993 0.63054 2.2775 2.6064
1.107 0.62908 2.2673 2.6003
1.115 0.62787 2.258 2.5953
1.1251 0.62787 2.2529 2.5953
1.1353 0.62787 2.2478 2.5953
1.1453 0.62786 2.2427 2.5953
1.1514 0.62568 2.2297 2.5863
1.1569 0.62326 2.2159 2.5763
1.1724 0.6262 2.2211 2.5884
1.1805 0.62523 2.2124 2.5844
1.1905 0.62523 2.2071 2.5844
1.1912 0.62042 2.1848 2.5646
1.2098 0.62498 2.1954 2.5834
1.2196 0.62498 2.1899 2.5834
1.2223 0.62135 2.1717 2.5684
1.2316 0.6211 2.1654 2.5674
1.2419 0.62138 2.1608 2.5685
1.2516 0.62138 2.1551 2.5685
1.2529 0.61726 2.1353 2.5515
1.2625 0.61726 2.1296 2.5515
1.272 0.61726 2.1239 2.5515
1.2831 0.61798 2.1206 2.5545
1.2926 0.61798 2.1148 2.5545
1.3017 0.61777 2.1083 2.5536
1.3106 0.61752 2.1016 2.5526
1.32 0.61752 2.0957 2.5526
1.3263 0.61607 2.0848 2.5466
1.3357 0.61606 2.0788 2.5465
1.3424 0.61485 2.0687 2.5415
1.3533 0.61561 2.0652 2.5447
1.3626 0.61561 2.059 2.5447
1.3718 0.61561 2.0529 2.5446
1.381 0.6156 2.0467 2.5446
1.388 0.61463 2.0372 2.5406
1.3972 0.61463 2.031 2.5406
1.4064 0.61466 2.0248 2.5407
1.416 0.6149 2.0192 2.5417
1.4251 0.61489 2.0128 2.5417
1.4324 0.61416 2.004 2.5387
1.4414 0.61418 1.9976 2.5387
1.4544 0.61588 1.9966 2.5458
1.4594 0.61419 1.9846 2.5388
1.4683 0.61418 1.978 2.5388
1.4771 0.61418 1.9713 2.5387
1.4857 0.61407 1.9643 2.5383
1.4931 0.61348 1.9557 2.5358
1.503 0.61396 1.9505 2.5378
1.5118 0.61395 1.9437 2.5378
1.5229 0.61493 1.94 2.5419
1.5341 0.61591 1.9362 2.5459
1.5428 0.61591 1.9293 2.5459
1.5514 0.6159 1.9223 2.5459
1.5595 0.61567 1.9146 2.5449
1.5866 0.62294 1.9301 2.575
1.6392 0.64011 1.9759 2.646
1.6811 0.65293 2.008 2.6989
1.692 0.65367 2.0026 2.702
1.7054 0.65537 2.0002 2.709
1.7144 0.65537 1.9925 2.709
1.7233 0.65536 1.9848 2.709
1.7294 0.65428 1.9737 2.7045
1.7399 0.6549 1.9678 2.7071
1.7487 0.6549 1.9599 2.7071
1.7575 0.65489 1.952 2.707
1.7669 0.65514 1.9449 2.7081
1.775 0.65491 1.9362 2.7071
1.7837 0.65491 1.9282 2.7071
1.793 0.65516 1.9209 2.7081
1.8117 0.6588 1.9234 2.7232
1.8203 0.65879 1.9153 2.7232
1.8295 0.65903 1.9077 2.7242
1.8324 0.65699 1.8936 2.7157
1.8358 0.65518 1.8802 2.7082
1.8477 0.65639 1.8753 2.7132
1.8561 0.65638 1.867 2.7132
1.868 0.65762 1.8621 2.7183
1.8763 0.65762 1.8537 2.7183
1.8846 0.65761 1.8452 2.7183
1.8981 0.65944 1.8418 2.7258
1.9089 0.66029 1.8357 2.7294
1.9143 0.65932 1.8244 2.7253
1.9195 0.65832 1.813 2.7212
1.9321 0.65981 1.8084 2.7274
1.9395 0.65958 1.7991 2.7264
1.9475 0.65957 1.7903 2.7264
1.9588 0.66067 1.7845 2.7309
1.9773 0.66419 1.7851 2.7455
1.9853 0.66418 1.7762 2.7454
1.9878 0.66238 1.7625 2.738
1.991 0.66081 1.7494 2.7315
2.0091 0.66419 1.7493 2.7455
2.0203 0.66529 1.7431 2.75
2.0307 0.66614 1.7362 2.7535
nan nan nan -inf
nan nan nan -inf
nan nan nan -inf
nan nan nan -inf
nan nan nan -inf
nan nan nan -inf
nan nan nan -inf
nan nan nan -inf
nan nan nan -inf
nan nan nan -inf
nan nan nan -inf
nan nan nan -inf
nan nan nan -inf
-2.2817 0.76473 1.9649 3.1067
-2.2728 0.76473 1.9752 3.1067
-2.2434 0.75781 1.9674 3.0786
-2.1772 0.73837 1.9268 2.9996
-2.1388 0.72827 1.9101 2.9586
-2.128 0.72753 1.9177 2.9556
-2.1194 0.72753 1.9273 2.9556
-2.1346 0.73577 1.9587 2.9891
-2.2669 0.78462 2.099 3.1875
-2.6498 0.921 2.4758 3.7416
-2.6485 0.92443 2.497 3.7555
-2.6519 0.92959 2.5229 3.7765
-2.6406 0.9296 2.5348 3.7765
-2.6249 0.92811 2.5426 3.7705
-2.6093 0.92663 2.5503 3.7644
-2.5978 0.92663 2.562 3.7644
-2.4804 0.88873 2.4684 3.6105
-2.4432 0.87935 2.4534 3.5724
-2.2423 0.81071 2.272 3.2935
-2.2321 0.81071 2.2821 3.2935
-2.5326 0.92413 2.6128 3.7543
-2.5208 0.92413 2.6242 3.7543
-2.5303 0.93198 2.6579 3.7862
-2.489 0.92116 2.6382 3.7422
-2.4679 0.91771 2.6395 3.7282
-2.456 0.91771 2.6506 3.7282
-2.4551 0.92188 2.6737 3.7451
-2.4163 0.91179 2.6553 3.7042
-2.4043 0.91179 2.6662 3.7042
-2.4588 0.93712 2.7514 3.8071
-2.4348 0.9327 2.7494 3.7891
-2.4224 0.9327 2.7603 3.7891
-2.4118 0.93341 2.7733 3.792
-2.3993 0.93341 2.7841 3.792
-2.3779 0.92998 2.7846 3.778
-2.3654 0.92998 2.7953 3.778
-2.3758 0.93906 2.8333 3.8149
-2.3481 0.93316 2.8261 3.791
-2.3354 0.93316 2.8367 3.791
nan nan nan inf
-2.3487 0.94889 2.9057 3.8549
-2.3356 0.94889 2.9163 3.8549
nan nan nan inf
nan nan nan inf
-2.2936 0.94789 2.9445 3.8508
-2.2803 0.94789 2.9548 3.8508
-2.267 0.9479 2.965 3.8508
-2.2438 0.94375 2.9622 3.834
-2.2403 0.94792 2.9854 3.8509
-2.2418 0.95431 3.0156 3.8769
-2.2282 0.95431 3.0257 3.8769
-2.2094 0.9521 3.0286 3.8679
-1.3028 0.56491 1.8029 2.2949
-1.2896 0.56268 1.8016 2.2859
-1.2764 0.56045 1.8002 2.2768
-1.2683 0.56045 1.8059 2.2768
-1.2967 0.5767 1.8642 2.3429
-1.3009 0.58237 1.8883 2.3659
-1.2606 0.56806 1.8477 2.3078
-1.2691 0.5757 1.8782 2.3388
-1.279 0.58407 1.9113 2.3728
-1.2859 0.59121 1.9405 2.4018
-1.9876 0.92007 3.0289 3.7378
-1.252 0.58355 1.9267 2.3707
-1.2737 0.59783 1.9796 2.4287
-2.0595 0.97346 3.2327 3.9547
-2.0491 0.97544 3.2485 3.9627
-2.0344 0.97544 3.2577 3.9627
-2.0248 0.9779 3.2751 3.9727
-2.0176 0.98156 3.2965 3.9876
-2.0027 0.98156 3.3055 3.9876
-1.9878 0.98157 3.3145 3.9876
-1.9684 0.97935 3.316 3.9786
-1.9491 0.97714 3.3173 3.9696
-1.9103 0.96508 3.285 3.9207
-1.8341 0.93382 3.1869 3.7937
-1.5333 0.78684 2.6922 3.1965
-1.4902 0.77084 2.6442 3.1315
-1.4471 0.75459 2.595 3.0655
-1.4354 0.7546 2.6015 3.0656
-1.3898 0.73663 2.5458 2.9926
-1.3783 0.73663 2.5521 2.9926
-1.3668 0.73664 2.5583 2.9926
-1.1678 0.63469 2.2095 2.5784
-1.1538 0.63248 2.207 2.5695
-1.1429 0.63199 2.2105 2.5675
-1.1246 0.62732 2.1992 2.5485
-1.1129 0.62633 2.2008 2.5445
-1.103 0.62634 2.2058 2.5445
-1.0931 0.62634 2.2107 2.5445
-1.0831 0.62634 2.2156 2.5445
-1.0705 0.62483 2.2151 2.5384
-1.0681 0.62926 2.2357 2.5564
-1.0609 0.63099 2.2466 2.5634
-1.0508 0.63099 2.2514 2.5634
-1.0406 0.63099 2.2561 2.5634
-1.0329 0.63247 2.2661 2.5694
-1.0227 0.63247 2.2707 2.5694
-1.6669 1.0413 3.7461 4.2304
-1.6559 1.045 3.7668 4.2453
-1.6397 1.0455 3.776 4.2473
-1.6226 1.0455 3.7833 4.2473
-1.6056 1.0455 3.7906 4.2473
-1.5908 1.047 3.8031 4.2533
-1.5766 1.0489 3.8174 4.2613
-1.5792 1.0622 3.873 4.3153
-1.5642 1.064 3.8863 4.3223
-1.5485 1.0652 3.8979 4.3273
-1.532 1.0659 3.9075 4.3303
-1.5179 1.0684 3.9233 4.3402
-1.5026 1.0701 3.9364 4.3472
-1.4886 1.0728 3.9531 4.3582
-1.4739 1.075 3.968 4.3672
-1.4643 1.0812 3.9973 4.3922
-1.4529 1.0861 4.0221 4.4122
-1.438 1.0885 4.0377 4.4222
-1.4211 1.0895 4.0478 4.4262
-1.4102 1.0952 4.0753 4.4492
-1.3937 1.0967 4.0871 4.4552
-1.379 1.0996 4.1043 4.4673
-1.3653 1.1035 4.1251 4.4831
-1.3503 1.1065 4.1423 4.4951
-1.3343 1.1087 4.1566 4.5041
-1.3171 1.1099 4.1672 4.5091
-1.3049 1.1156 4.1944 4.5321
-1.2914 1.1203 4.2178 4.5511
-1.2761 1.1235 4.2357 4.5641
-1.2658 1.1314 4.2711 4.5961
-1.2466 1.1314 4.2768 4.5961
-1.2273 1.1314 4.2823 4.5961
-1.2004 1.1242 4.2608 4.5672
-1.1416 1.0866 4.1232 4.4142
-1.0984 1.0627 4.0376 4.3172
-1.0694 1.0521 4.0022 4.2742
-1.0425 1.0432 3.9731 4.238
-1.02 1.0385 3.9599 4.219
-0.99861 1.0348 3.9504 4.204
-0.97499 1.0287 3.9313 4.179
-0.94926 1.0201 3.9027 4.144
-0.92696 1.0149 3.8872 4.123
-0.90681 1.0119 3.88 4.111
-0.88371 1.0055 3.8595 4.085
-0.8606 0.9989 3.8379 4.058
-0.83958 0.99447 3.8247 4.04
-0.81645 0.98733 3.8009 4.011
-0.79654 0.98389 3.7913 3.9971
-0.38544 0.48653 1.8765 1.9765
-0.37445 0.48325 1.8656 1.9632
-0.36243 0.47848 1.8488 1.9438
-0.35545 0.4803 1.8575 1.9512
-0.34608 0.4789 1.8537 1.9455
-0.33818 0.47955 1.8577 1.9482
-0.32938 0.47891 1.8567 1.9456
-0.32139 0.47947 1.8604 1.9479
-0.31232 0.4784 1.8576 1.9435
-0.30501 0.48007 1.8655 1.9503
-0.29738 0.48132 1.8717 1.9554
-0.29052 0.48394 1.8832 1.966
-0.28236 0.48448 1.8866 1.9682
-0.27571 0.48775 1.9006 1.9815
-0.26966 0.49233 1.9197 2.0001
-0.26011 0.49061 1.9142 1.9931
-0.25371 0.49496 1.9323 2.0108
-0.24681 0.49859 1.9476 2.0255
-0.27681 0.57979 2.2661 2.3554
-0.23292 0.50654 1.9809 2.0578
-0.22537 0.50963 1.994 2.0704
-0.21826 0.51403 2.0122 2.0883
-0.21097 0.51839 2.0302 2.106
-0.20278 0.52084 2.0408 2.1159
-0.19398 0.52187 2.0457 2.1201
-0.18702 0.52825 2.0716 2.146
-0.17785 0.52873 2.0743 2.148
-0.17049 0.53492 2.0993 2.1731
-0.16167 0.53703 2.1084 2.1817
-0.15369 0.54236 2.13 2.2034
-0.14506 0.54596 2.1448 2.218
-0.13626 0.54943 2.1591 2.2321
-0.12701 0.55149 2.1678 2.2404
-0.11797 0.55486 2.1816 2.2541
-0.10885 0.55846 2.1962 2.2687
-0.099413 0.56102 2.2068 2.2791
-0.09044 0.56705 2.2309 2.3037
-0.081075 0.57184 2.2502 2.3231
-0.071229 0.57414 2.2596 2.3325
-0.061555 0.57883 2.2783 2.3515
-0.051738 0.5838 2.2981 2.3717
-0.041815 0.58976 2.3218 2.3959
-0.031604 0.59432 2.3399 2.4144
-0.021136 0.59618 2.3474 2.422
-0.01069 0.60306 2.3745 2.4499
0 0.62528 2.462 2.5402
0.010994 0.6202 2.442 2.5196
0.022012 0.62092 2.4448 2.5225
0.033145 0.62331 2.4541 2.5322
0.044171 0.623 2.4527 2.5309
0.055247 0.6234 2.454 2.5326
0.066518 0.62551 2.462 2.5411
0.077309 0.62315 2.4524 2.5316
0.088079 0.62125 2.4446 2.5238
0.099495 0.62383 2.4543 2.5343
0.13853 0.78177 3.0751 3.176
0.12157 0.62373 2.4529 2.5339
0.13266 0.62398 2.4534 2.5349
0.14343 0.62279 2.448 2.5301
0.15211 0.61334 2.4102 2.4917
0.16314 0.61403 2.4123 2.4945
0.21728 0.76675 3.0113 3.1149
0.2292 0.76134 2.989 3.0929
0.24242 0.7606 2.985 3.0899
0.25544 0.75937 2.9791 3.0849
0.26867 0.75888 2.976 3.0829
0.28125 0.75666 2.9661 3.0739
0.29258 0.75149 2.9445 3.0529
0.30553 0.75075 2.9403 3.0499
0.31783 0.74854 2.9302 3.0409
0.33025 0.74681 2.922 3.0339
0.3434 0.74681 2.9205 3.0339
0.35478 0.74312 2.9045 3.0189
0.36688 0.74115 2.8951 3.0109
0.3784 0.7382 2.8819 2.9989
0.39032 0.73623 2.8725 2.9909
0.40231 0.7345 2.864 2.9839
0.41422 0.73278 2.8554 2.9769
0.42578 0.73056 2.8449 2.9679
0.43636 0.72687 2.8286 2.9529
0.44836 0.72568 2.822 2.9481
0.46012 0.7242 2.8142 2.9421
0.47166 0.72248 2.8054 2.9351
0.48428 0.72248 2.8032 2.9351
0.49605 0.72125 2.7963 2.9301
0.50863 0.72125 2.794 2.9301
0.518 0.71681 2.7745 2.9121
0.52849 0.71411 2.7617 2.9011
0.53756 0.70967 2.7422 2.8831
0.54989 0.70967 2.7397 2.8831
0.56183 0.70918 2.7353 2.8811
0.57414 0.70918 2.7327 2.881
0.58521 0.7077 2.7244 2.875
0.59747 0.7077 2.7218 2.875
0.60399 0.70105 2.6935 2.848
0.61611 0.70105 2.6908 2.848
0.62778 0.70056 2.6861 2.846
0.63806 0.69859 2.6757 2.838
0.6501 0.69859 2.6728 2.838
0.66003 0.69637 2.6613 2.829
0.66891 0.69317 2.6461 2.816
0.68085 0.69321 2.6432 2.8162
0.69225 0.69272 2.6383 2.8142
0.70362 0.69222 2.6333 2.8122
0.71267 0.68951 2.6198 2.8012
0.72342 0.68853 2.6128 2.7972
0.73281 0.68631 2.6011 2.7881
0.74451 0.68631 2.5978 2.7881
0.75348 0.68385 2.5851 2.7781
0.76484 0.6836 2.5807 2.7771
0.77533 0.68261 2.5735 2.7731
0.78662 0.68237 2.5691 2.7721
0.79674 0.68113 2.5609 2.7671
0.80738 0.6804 2.5545 2.7641
0.81887 0.68039 2.5508 2.7641
0.83069 0.68068 2.5482 2.7653
0.8586 0.69397 2.5941 2.8193
0.88539 0.70603 2.6352 2.8682
0.89724 0.70603 2.6312 2.8682
0.90908 0.70603 2.6271 2.8682
0.91351 0.70036 2.602 2.8452
0.90765 0.68707 2.5485 2.7912
0.91911 0.68707 2.5444 2.7912
0.92256 0.68116 2.5184 2.7672
0.93051 0.67869 2.5051 2.7572
0.94006 0.67746 2.4964 2.7522
0.92433 0.65826 2.4215 2.6742
0.93528 0.6583 2.4174 2.6743
0.94367 0.65657 2.4069 2.6673
0.95414 0.65633 2.4017 2.6663
0.96421 0.65583 2.3956 2.6643
0.97498 0.65583 2.3912 2.6643
0.98167 0.65312 2.3769 2.6533
0.99048 0.65189 2.368 2.6483
0.99735 0.64942 2.3546 2.6383
1.003 0.64622 2.3385 2.6253
1.0166 0.64823 2.3412 2.6334
1.0256 0.64724 2.333 2.6294
1.0357 0.64699 2.3275 2.6284
1.0434 0.64527 2.3166 2.6214
1.053 0.64477 2.3101 2.6194
1.0634 0.64477 2.3054 2.6194
1.0696 0.64231 2.2918 2.6094
1.0787 0.64157 2.2843 2.6064
1.089 0.64157 2.2794 2.6064
1.0989 0.64136 2.2737 2.6055
1.1044 0.63865 2.2592 2.5945
1.1145 0.63864 2.2542 2.5945
1.1225 0.63741 2.2448 2.5895
1.1326 0.63741 2.2397 2.5895
1.1427 0.63741 2.2346 2.5895
1.1527 0.6374 2.2294 2.5895
1.1627 0.6374 2.2242 2.5894
1.1714 0.6367 2.2165 2.5866
1.1791 0.63546 2.2069 2.5816
1.1872 0.63448 2.1982 2.5776
1.1971 0.63448 2.1928 2.5776
1.2008 0.63127 2.1763 2.5646
1.2106 0.63127 2.1709 2.5646
1.2204 0.63127 2.1654 2.5645
1.232 0.63225 2.1633 2.5685
1.2418 0.63229 2.1578 2.5687
1.2506 0.63179 2.1505 2.5667
1.2573 0.63031 2.1398 2.5606
1.2669 0.63031 2.1341 2.5606
1.2765 0.63031 2.1284 2.5606
1.286 0.6303 2.1226 2.5606
1.292 0.62858 2.111 2.5536
1.3006 0.62812 2.1037 2.5517
1.31 0.62812 2.0978 2.5517
1.3194 0.62811 2.0918 2.5517
1.3278 0.62762 2.0842 2.5497
1.3372 0.62762 2.0782 2.5497
1.3442 0.62652 2.0686 2.5453
1.3538 0.62666 2.063 2.5458
1.362 0.62616 2.0552 2.5438
1.3696 0.62542 2.0466 2.5408
1.3777 0.62493 2.0388 2.5388
1.3877 0.62531 2.0339 2.5403
1.3974 0.62555 2.0284 2.5413
1.4068 0.62569 2.0225 2.5419
1.4159 0.62568 2.0161 2.5418
1.4277 0.62691 2.0137 2.5468
1.4365 0.6268 2.0069 2.5464
1.4385 0.62374 1.9906 2.5339
1.4474 0.62373 1.9841 2.5339
1.4546 0.62299 1.9752 2.5309
1.4652 0.62373 1.971 2.5339
1.4773 0.62509 1.9687 2.5394
1.4894 0.62646 1.9663 2.545
1.4935 0.62448 1.9534 2.537
1.507 0.62645 1.9528 2.545
1.5164 0.62671 1.9468 2.546
1.5234 0.62598 1.9377 2.5431
1.5321 0.62598 1.9308 2.543
1.5408 0.62597 1.9238 2.543
1.5546 0.62808 1.9233 2.5516
1.5691 0.63043 1.9235 2.5611
1.5938 0.63682 1.9358 2.5871
1.6402 0.65183 1.9741 2.6481
1.6799 0.66403 2.0035 2.6976
1.6937 0.66588 2.0015 2.7052
1.7039 0.66637 1.9953 2.7071
1.7135 0.66661 1.9883 2.7081
1.7202 0.66576 1.9781 2.7047
1.7276 0.66516 1.9685 2.7022
1.7364 0.66515 1.9607 2.7022
1.7484 0.66638 1.9565 2.7072
1.7602 0.6675 1.9519 2.7117
1.7706 0.66813 1.9457 2.7143
1.776 0.66689 1.9342 2.7093
1.788 0.66812 1.9297 2.7142
1.7981 0.66864 1.9231 2.7163
1.8067 0.66863 1.915 2.7163
1.8153 0.66863 1.9068 2.7163
1.8151 0.66542 1.8895 2.7033
1.8358 0.66988 1.894 2.7214
1.8443 0.66988 1.8857 2.7214
1.8528 0.66987 1.8773 2.7214
1.8623 0.67025 1.87 2.7229
1.8752 0.67186 1.8661 2.7295
1.8835 0.67186 1.8576 2.7294
1.894 0.67261 1.8512 2.7325
1.9037 0.67311 1.844 2.7345
1.9084 0.67184 1.832 2.7294
1.9209 0.67335 1.8274 2.7355
1.9288 0.67324 1.8185 2.735
1.9374 0.67337 1.8101 2.7356
1.9455 0.67336 1.8014 2.7355
1.9568 0.67448 1.7956 2.7401
1.9581 0.67215 1.7806 2.7306
1.9668 0.67239 1.7724 2.7316
1.9805 0.67437 1.7687 2.7396
1.995 0.67659 1.7655 2.7487
2.0029 0.67658 1.7565 2.7486
2.009 0.67598 1.7459 2.7462
2.015 0.67537 1.7353 2.7437
2.021 0.67476 1.7247 2.7412
nan nan nan -inf
nan nan nan -inf
nan nan nan -inf
nan nan nan -inf
nan nan nan -inf
nan nan nan -inf
nan nan nan -inf
nan nan nan -inf
nan nan nan -inf
nan nan nan -inf
nan nan nan -inf
nan nan nan -inf
nan nan nan -inf
-2.281 0.77786 1.9605 3.1067
-2.2744 0.77864 1.9728 3.1098
-2.2622 0.7775 1.9801 3.1053
-2.2209 0.76635 1.9617 3.0608
-2.1471 0.74383 1.9138 2.9708
-2.1305 0.74106 1.9163 2.9598
-2.1232 0.74156 1.9271 2.9617
-2.1238 0.74482 1.9452 2.9747
-2.1158 0.74507 1.9554 2.9758
-2.6612 0.9411 2.4819 3.7587
-2.6529 0.94211 2.4965 3.7627
-2.6437 0.94285 2.5104 3.7657
-2.6344 0.94359 2.5243 3.7686
-2.623 0.9436 2.5362 3.7687
-2.6133 0.94421 2.5496 3.7711
-2.5889 0.93957 2.5488 3.7526
-2.5115 0.91554 2.495 3.6566
-2.4229 0.88722 2.4287 3.5435
-2.2418 0.82463 2.2675 3.2935
-2.2316 0.82464 2.2776 3.2935
-2.2172 0.82314 2.2835 3.2876
-2.2069 0.82314 2.2935 3.2876
-2.1966 0.82315 2.3034 3.2876
-2.1902 0.82465 2.3175 3.2936
-2.1651 0.81912 2.3118 3.2715
-2.1546 0.81912 2.3215 3.2715
-2.1442 0.81913 2.3312 3.2715
-2.1356 0.81988 2.343 3.2746
-2.101 0.81059 2.3259 3.2374
-2.0905 0.81059 2.3354 3.2374
-2.0992 0.81811 2.3665 3.2675
-2.0892 0.81836 2.3767 3.2685
-2.0796 0.81884 2.3875 3.2704
-2.0689 0.81884 2.3968 3.2704
-2.058 0.81884 2.4061 3.2704
-2.0534 0.82135 2.4228 3.2804
nan nan nan inf
-1.9609 0.79279 2.3563 3.1663
-1.9502 0.79279 2.3651 3.1663
-1.9396 0.79279 2.3739 3.1664
nan nan nan inf
nan nan nan inf
nan nan nan inf
nan nan nan inf
nan nan nan inf
nan nan nan inf
-1.9443 0.82707 2.5391 3.3032
-1.9328 0.82707 2.5478 3.3032
-1.9376 0.83408 2.5782 3.3313
-2.1896 0.94823 2.9409 3.7871
-2.2274 0.97048 3.02 3.876
-2.2172 0.97199 3.0348 3.882
-2.2035 0.97199 3.0447 3.8821
-2.1897 0.97199 3.0546 3.8821
-1.2864 0.57461 1.8116 2.295
-1.3205 0.59365 1.8776 2.371
-2.0475 0.9264 2.9393 3.7
-2.043 0.93041 2.9613 3.716
-2.0318 0.93142 2.9737 3.72
-2.0216 0.93289 2.9875 3.7259
-2.0092 0.9334 2.9982 3.7279
-1.9994 0.93515 3.0129 3.7349
-1.988 0.93616 3.0251 3.7389
-1.9804 0.93902 3.0433 3.7504
-2.0135 0.96142 3.125 3.8398
-2.0614 0.99122 3.2312 3.9588
-2.0535 0.99447 3.2511 3.9719
-2.0404 0.99523 3.2628 3.9749
-2.0308 0.99774 3.2802 3.9849
-2.0154 0.99747 3.2885 3.9838
-2.0011 0.99771 3.2983 3.9848
-1.9967 1.003 3.3247 4.0058
-1.9841 1.0042 3.3378 4.0108
-1.9691 1.0042 3.3468 4.0108
-1.9413 0.99772 3.3339 3.9848
-1.9243 0.99672 3.3392 3.9808
-1.5557 0.81215 2.7279 3.2437
-1.4963 0.78737 2.6514 3.1447
-1.4792 0.78462 2.6489 3.1337
-1.4424 0.77135 2.6106 3.0807
-1.4306 0.77135 2.6171 3.0807
-1.4188 0.77135 2.6235 3.0807
-1.407 0.77136 2.6299 3.0807
-1.3516 0.74728 2.5539 2.9846
-1.3401 0.74729 2.56 2.9846
-1.2373 0.69596 2.3898 2.7796
-1.1426 0.64839 2.2316 2.5896
-1.1147 0.63813 2.2013 2.5486
-1.1043 0.63788 2.2055 2.5477
-1.0943 0.63788 2.2104 2.5477
-1.0844 0.63789 2.2154 2.5477
-1.0743 0.63785 2.2201 2.5475
-1.0697 0.64111 2.2363 2.5605
-1.0596 0.64111 2.2411 2.5605
-1.0495 0.64111 2.2459 2.5605
-1.0394 0.64111 2.2506 2.5606
-1.0293 0.64111 2.2552 2.5606
-1.0278 0.64663 2.2793 2.5826
-1.0219 0.64938 2.2936 2.5936
-1.6546 1.0622 3.7593 4.2424
-1.6419 1.065 3.7765 4.2534
-1.628 1.067 3.7909 4.2614
-1.6109 1.067 3.7983 4.2615
-1.5907 1.065 3.7983 4.2535
-1.5821 1.0707 3.826 4.2765
-1.5707 1.0748 3.8475 4.2925
-1.5617 1.0805 3.8752 4.3155
-1.5456 1.0815 3.8858 4.3195
-1.5359 1.087 3.9126 4.3415
-1.5164 1.0857 3.9148 4.3364
-1.5105 1.0943 3.9523 4.3704
-1.4958 1.0965 3.9673 4.3794
-1.4803 1.0983 3.9803 4.3864
-1.4656 1.1008 3.996 4.3964
-1.4549 1.1063 4.0226 4.4184
-1.4403 1.109 4.0392 4.4294
-1.4291 1.1145 4.0657 4.4514
-1.4121 1.1155 4.0758 4.4554
-1.3949 1.1165 4.0858 4.4594
-1.3845 1.1231 4.1159 4.4854
-1.3699 1.1263 4.1339 4.4983
-1.3566 1.1308 4.1566 4.5163
-1.34 1.1325 4.1691 4.5233
-1.3223 1.1335 4.1788 4.5273
-1.307 1.1365 4.1959 4.5393
-1.288 1.1365 4.2017 4.5393
-1.2744 1.1413 4.2251 4.5583
-1.2625 1.1478 4.2549 4.5843
-1.2433 1.1478 4.2606 4.5843
-1.2241 1.1478 4.2661 4.5843
-1.1928 1.1363 4.2288 4.5383
-1.1243 1.0885 4.0559 4.3473
-1.0958 1.0785 4.0236 4.3073
-1.0694 1.0702 3.9975 4.2742
-1.0477 1.0664 3.9882 4.2592
-1.0208 1.0571 3.9582 4.2222
-0.99911 1.0531 3.9477 4.2062
-0.97267 1.0439 3.9174 4.1692
-0.95157 1.0401 3.9077 4.1542
-0.92946 1.0351 3.8931 4.1342
-0.90661 1.0291 3.8746 4.1102
-0.88611 1.0256 3.8655 4.0962
-0.86105 1.0166 3.8354 4.0602
-0.84001 1.0121 3.8222 4.0422
-0.81993 1.0086 3.8127 4.0282
-0.38763 0.48703 1.8429 1.9451
-0.38316 0.49196 1.8633 1.9648
-0.37667 0.49447 1.8745 1.9749
-0.36918 0.49576 1.8811 1.98
-0.36682 0.50418 1.9147 2.0137
-0.34712 0.48859 1.8571 1.9514
-0.33758 0.48692 1.8523 1.9447
-0.32934 0.48708 1.8544 1.9454
-0.32062 0.48653 1.8537 1.9432
-0.31308 0.48782 1.8601 1.9483
-0.3048 0.48798 1.8621 1.9489
-0.29665 0.48838 1.865 1.9506
-0.28981 0.49104 1.8764 1.9612
-0.28232 0.49274 1.8842 1.968
-0.27531 0.4954 1.8957 1.9786
-0.26695 0.49574 1.8982 1.98
-0.26023 0.49928 1.9129 1.9941
-0.25356 0.50316 1.929 2.0096
-0.24651 0.50655 1.9431 2.0231
-0.23879 0.50875 1.9527 2.0319
-0.23137 0.51182 1.9655 2.0442
-0.22429 0.5159 1.9822 2.0605
-0.21766 0.52142 2.0044 2.0825
-0.20822 0.52042 2.0015 2.0785
-0.20203 0.52782 2.0309 2.1081
-0.19525 0.53432 2.0568 2.134
-0.18566 0.53339 2.0541 2.1303
-0.17739 0.5364 2.0665 2.1424
-0.1703 0.54351 2.0947 2.1707
-0.16196 0.54721 2.1097 2.1855
-0.15294 0.54898 2.1172 2.1926
-0.14467 0.55386 2.1367 2.2121
-0.13644 0.55959 2.1595 2.235
-0.12737 0.56254 2.1714 2.2467
-0.11791 0.5641 2.178 2.253
-0.10842 0.56579 2.1851 2.2597
-0.099704 0.57232 2.2107 2.2858
-0.089932 0.57355 2.2159 2.2907
-0.081305 0.58331 2.254 2.3297
-0.071533 0.58649 2.2667 2.3424
-0.061172 0.5851 2.2616 2.3369
-0.051756 0.59403 2.2964 2.3725
-0.044397 0.63694 2.4625 2.5439
-0.031389 0.6004 2.3214 2.398
-0.021311 0.61144 2.3642 2.442
-0.010703 0.61412 2.3746 2.4527
0 0.63313 2.4481 2.5287
0.011073 0.63543 2.457 2.5379
0.022056 0.63282 2.4468 2.5274
0.033069 0.63256 2.4457 2.5264
0.044027 0.63164 2.442 2.5227
0.054912 0.63026 2.4364 2.5172
0.066226 0.63345 2.4485 2.53
0.077046 0.6317 2.4414 2.523
0.088009 0.63141 2.4399 2.5218
0.098829 0.6303 2.4352 2.5174
0.10973 0.62985 2.433 2.5156
0.12036 0.62816 2.4259 2.5088
0.13099 0.6267 2.4197 2.503
0.1418 0.62629 2.4175 2.5014
0.15261 0.62593 2.4155 2.4999
0.16331 0.62522 2.412 2.4971
0.17536 0.62948 2.4277 2.5141
0.18543 0.62653 2.4155 2.5023
0.19665 0.62761 2.4188 2.5066
0.20834 0.63 2.4271 2.5162
0.21812 0.62667 2.4133 2.5029
0.22653 0.61993 2.3864 2.4759
0.23891 0.62417 2.4016 2.4929
0.30575 0.76419 2.939 3.0521
0.26137 0.62615 2.407 2.5008
0.26952 0.61995 2.382 2.476
0.28008 0.61956 2.3792 2.4745
0.29105 0.62009 2.38 2.4766
0.36726 0.75467 2.8949 3.0141
0.3793 0.75267 2.8855 3.0061
