# .PCD v.6 - Point Cloud Data file format
FIELDS x y z range
SIZE 4 4 4 4
TYPE F F F F
COUNT 1 1 1 1
WIDTH 1636
HEIGHT 1
POINTS 1636
DATA ascii
-1.2264 0.58258 2.4511 2.8021
-1.2293 0.5892 2.4845 2.8339
-1.2251 0.59253 2.504 2.8499
-1.2071 0.5892 2.4954 2.8339
-1.1959 0.5892 2.5007 2.8339
-1.1831 0.58837 2.5025 2.8299
-1.1719 0.58837 2.5078 2.8299
-1.1583 0.58713 2.5077 2.8239
-1.1434 0.58526 2.5048 2.8149
-1.1322 0.58526 2.5099 2.8149
-1.0927 0.5705 2.4515 2.744
-1.0818 0.5705 2.4563 2.744
-1.1137 0.59334 2.5596 2.8538
-1.1088 0.59687 2.5799 2.8708
-1.0996 0.59812 2.5902 2.8768
-1.0881 0.59812 2.5951 2.8768
-1.0765 0.59812 2.5999 2.8768
-1.0408 0.58461 2.5458 2.8118
-0.99722 0.56632 2.4706 2.7238
-0.97279 0.55862 2.4415 2.6868
-0.96189 0.55862 2.4458 2.6868
-0.95487 0.56091 2.4601 2.6978
-0.94389 0.56091 2.4643 2.6978
-0.97888 0.58857 2.5902 2.8309
-1.0035 0.61057 2.6915 2.9367
-1.0104 0.62222 2.7474 2.9927
-1.0014 0.6243 2.7611 3.0027
-0.99439 0.62762 2.7803 3.0187
-0.98197 0.62762 2.7847 3.0187
-0.96441 0.6243 2.7742 3.0027
-0.95234 0.62451 2.7794 3.0037
-0.94244 0.62617 2.7911 3.0117
-0.92751 0.62451 2.7878 3.0037
-0.91506 0.62451 2.792 3.0037
-0.9026 0.62451 2.796 3.0037
-0.88834 0.62326 2.7944 2.9977
-0.87587 0.62326 2.7984 2.9977
-0.87115 0.62888 2.8275 3.0247
-0.95102 0.69662 3.1363 3.3506
-0.93562 0.69559 3.1359 3.3456
-0.92162 0.69559 3.14 3.3456
-0.90761 0.69559 3.1441 3.3456
-0.89358 0.69559 3.1481 3.3456
-0.87952 0.69559 3.1521 3.3456
-0.86649 0.69642 3.1597 3.3496
-0.85239 0.69642 3.1636 3.3496
-0.83827 0.69642 3.1674 3.3496
-0.82413 0.69642 3.1711 3.3496
-0.80732 0.69414 3.1643 3.3386
-0.7932 0.69414 3.1679 3.3386
-0.77906 0.69414 3.1714 3.3386
-0.76536 0.69455 3.1767 3.3406
-0.75118 0.69455 3.1801 3.3406
-0.73699 0.69455 3.1834 3.3406
-0.72278 0.69455 3.1867 3.3406
-0.70856 0.69456 3.1899 3.3406
-0.69391 0.69414 3.1911 3.3386
-0.67967 0.69414 3.1942 3.3386
-0.66458 0.69327 3.1932 3.3345
-0.64916 0.69203 3.1904 3.3285
-0.63245 0.68932 3.1808 3.3155
-0.61788 0.68891 3.1816 3.3135
-0.60368 0.68891 3.1843 3.3135
-0.58894 0.68829 3.1841 3.3105
-0.57473 0.68829 3.1867 3.3105
-0.56 0.68766 3.1864 3.3075
-0.54561 0.68746 3.1879 3.3065
-0.53042 0.68621 3.1845 3.3005
-0.5159 0.68579 3.1849 3.2985
-0.50138 0.68538 3.1852 3.2965
-0.48717 0.68538 3.1874 3.2965
-0.4728 0.68517 3.1886 3.2955
-0.45691 0.68268 3.1791 3.2835
-0.44272 0.68268 3.1811 3.2835
-0.4284 0.68247 3.1821 3.2825
-0.41369 0.68164 3.1801 3.2785
-0.39975 0.68205 3.1838 3.2805
-0.38554 0.68205 3.1856 3.2805
-0.3711 0.68164 3.1853 3.2785
-0.35558 0.67914 3.1753 3.2665
-0.34141 0.67914 3.1768 3.2665
-0.32724 0.67914 3.1783 3.2665
-0.31306 0.67914 3.1797 3.2665
-0.29887 0.67914 3.1811 3.2665
-0.28459 0.67894 3.1814 3.2655
-0.26965 0.67707 3.1739 3.2565
-0.25549 0.67707 3.1751 3.2565
-0.24081 0.67561 3.1694 3.2495
-0.22695 0.67644 3.1743 3.2535
-0.21298 0.67707 3.1782 3.2565
-0.19862 0.67644 3.1762 3.2535
-0.18422 0.67561 3.1732 3.2495
-0.16985 0.67478 3.17 3.2455
-0.15571 0.67478 3.1708 3.2455
-0.14144 0.67416 3.1685 3.2425
-0.12742 0.67478 3.172 3.2455
-0.11316 0.67416 3.1696 3.2425
-0.099052 0.67436 3.1711 3.2435
-0.084853 0.67395 3.1695 3.2415
-0.070713 0.67395 3.1699 3.2415
-0.056485 0.67291 3.1653 3.2365
-0.042339 0.67249 3.1635 3.2345
-0.028227 0.67249 3.1637 3.2345
-0.014123 0.67291 3.1658 3.2365
0 0.67291 3.1658 3.2365
0.014113 0.67249 3.1638 3.2345
0.028226 0.67249 3.1637 3.2345
0.042312 0.67208 3.1616 3.2325
0.056327 0.67104 3.1565 3.2275
0.070407 0.67104 3.1562 3.2275
0.084616 0.67208 3.1607 3.2325
0.098745 0.67228 3.1613 3.2335
0.11285 0.67228 3.1608 3.2335
0.12694 0.67228 3.1603 3.2335
0.14091 0.67166 3.1568 3.2305
0.15499 0.67166 3.1561 3.2305
0.16907 0.67166 3.1554 3.2305
0.18314 0.67166 3.1546 3.2305
0.1974 0.67228 3.1567 3.2335
0.21147 0.67228 3.1558 3.2335
0.22555 0.67228 3.1548 3.2335
0.23977 0.6727 3.1557 3.2355
0.25384 0.6727 3.1546 3.2355
0.26808 0.67311 3.1554 3.2375
0.28233 0.67353 3.1561 3.2395
0.2964 0.67353 3.1548 3.2395
0.31047 0.67353 3.1535 3.2395
0.32393 0.67228 3.1462 3.2335
0.30091 0.59857 2.7999 2.879
0.31038 0.59281 2.7716 2.8513
0.31992 0.58762 2.746 2.8263
0.33005 0.58389 2.7271 2.8083
0.3412 0.58216 2.7175 2.8
0.35331 0.58215 2.7159 2.8
0.36357 0.57919 2.7005 2.7858
0.37559 0.57917 2.6988 2.7856
0.38697 0.57819 2.6925 2.7809
0.39856 0.57758 2.6879 2.778
0.41024 0.57715 2.6841 2.776
0.42177 0.57655 2.6795 2.7731
0.43395 0.57686 2.679 2.7746
0.44545 0.57628 2.6743 2.7718
0.45792 0.57696 2.6755 2.775
0.47049 0.57775 2.6771 2.7788
0.48198 0.57722 2.6725 2.7763
0.49203 0.57504 2.6602 2.7658
0.50378 0.5749 2.6574 2.7651
0.51567 0.57495 2.6553 2.7654
0.52874 0.5763 2.6592 2.7718
0.54011 0.57577 2.6544 2.7693
0.55181 0.57563 2.6513 2.7686
0.5638 0.5758 2.6496 2.7695
0.57538 0.57557 2.646 2.7683
0.58656 0.57497 2.6407 2.7654
0.59736 0.57403 2.6337 2.7609
0.60969 0.57459 2.6336 2.7636
0.62072 0.57393 2.6278 2.7604
0.6332 0.57462 2.6282 2.7638
0.64337 0.57324 2.619 2.7571
0.65524 0.57341 2.6169 2.7579
0.66685 0.57336 2.6137 2.7577
0.67858 0.57343 2.611 2.758
0.68925 0.57262 2.6043 2.7541
0.70121 0.5729 2.6025 2.7555
0.71347 0.57344 2.6018 2.7581
0.72326 0.57201 2.5921 2.7512
0.7354 0.57246 2.5909 2.7534
0.74656 0.57216 2.5862 2.7519
0.75932 0.57309 2.587 2.7564
0.77057 0.57288 2.5827 2.7554
0.78303 0.57357 2.5823 2.7587
0.79277 0.57229 2.5731 2.7526
0.80513 0.57292 2.5723 2.7556
0.81581 0.57237 2.5663 2.753
0.8282 0.57303 2.5655 2.7561
0.84023 0.57344 2.5636 2.7581
0.85236 0.57391 2.562 2.7604
0.86367 0.57384 2.5578 2.76
0.87754 0.57545 2.5611 2.7678
0.89235 0.57766 2.567 2.7784
0.91256 0.58325 2.5878 2.8053
0.93525 0.5903 2.6149 2.8392
0.93517 0.58298 2.5784 2.804
0.95579 0.5886 2.599 2.831
0.91572 0.55717 2.4561 2.6799
0.92666 0.55717 2.452 2.6798
0.95193 0.56569 2.4853 2.7208
0.96301 0.56569 2.481 2.7208
0.97406 0.56569 2.4767 2.7208
0.97062 0.55738 2.436 2.6808
0.97195 0.55197 2.4081 2.6548
0.98269 0.55197 2.4037 2.6548
0.9934 0.55197 2.3993 2.6548
1.0041 0.55197 2.3948 2.6548
1.0155 0.55238 2.3921 2.6568
1.0262 0.55238 2.3876 2.6568
1.0368 0.55238 2.3829 2.6568
1.0534 0.55553 2.3919 2.672
1.0649 0.55594 2.3889 2.6739
1.0755 0.55594 2.3841 2.6739
1.0869 0.55636 2.3811 2.6759
1.0976 0.55636 2.3762 2.6759
1.1131 0.55885 2.3819 2.6879
1.1254 0.55968 2.3805 2.6919
1.1377 0.56051 2.379 2.6959
1.1483 0.56051 2.3739 2.6959
1.1589 0.56051 2.3687 2.6959
1.1005 0.52748 2.2243 2.5371
1.1104 0.52748 2.2193 2.5371
1.1163 0.52561 2.2065 2.528
1.1235 0.52436 2.1962 2.522
1.1238 0.51999 2.173 2.501
1.1335 0.51999 2.1679 2.501
1.1432 0.51999 2.1628 2.501
1.1556 0.52124 2.1629 2.507
1.1661 0.52165 2.1594 2.509
1.1818 0.52435 2.1654 2.522
1.167 0.51358 2.1157 2.4702
1.1783 0.51441 2.1139 2.4742
1.2113 0.52459 2.1503 2.5231
1.2208 0.52459 2.1449 2.5231
1.2572 0.53603 2.1861 2.5781
1.267 0.53602 2.1804 2.5781
1.2767 0.53602 2.1748 2.5781
1.2864 0.53602 2.169 2.5781
1.296 0.53602 2.1633 2.5781
1.3072 0.53664 2.16 2.5811
1.3021 0.53064 2.13 2.5523
1.311 0.53043 2.1234 2.5512
1.321 0.53064 2.1183 2.5522
1.333 0.53168 2.1165 2.5572
1.3425 0.53168 2.1106 2.5572
1.355 0.53292 2.1095 2.5632
1.3708 0.53541 2.1133 2.5752
1.3578 0.52671 2.0729 2.5333
1.367 0.52671 2.0668 2.5333
1.3762 0.52671 2.0607 2.5333
1.3783 0.524 2.0439 2.5203
1.3736 0.5188 2.0176 2.4953
1.3826 0.5188 2.0114 2.4953
1.3938 0.51965 2.0085 2.4994
1.4079 0.52153 2.0095 2.5084
1.4315 0.52693 2.024 2.5344
1.4774 0.54044 2.0693 2.5994
1.5141 0.55042 2.1008 2.6474
1.5235 0.55042 2.094 2.6474
1.5299 0.54939 2.0833 2.6424
1.5363 0.54836 2.0725 2.6375
1.5455 0.54836 2.0656 2.6375
1.5276 0.5388 2.0228 2.5915
1.5331 0.53755 2.0113 2.5855
1.5292 0.53309 1.9878 2.564
1.5348 0.53196 1.9768 2.5586
1.5303 0.52738 1.953 2.5366
1.5324 0.52509 1.9377 2.5255
1.5269 0.52031 1.9132 2.5025
1.5284 0.51793 1.8977 2.4911
1.5255 0.51409 1.8768 2.4726
1.5084 0.50556 1.839 2.4316
1.4193 0.47313 1.7147 2.2756
1.3736 0.45545 1.6445 2.1906
1.369 0.45151 1.6242 2.1717
1.375 0.45111 1.6166 2.1697
1.3822 0.45111 1.6105 2.1697
1.3894 0.4511 1.6043 2.1697
1.3965 0.4511 1.5981 2.1697
1.4027 0.4508 1.5908 2.1682
1.4082 0.45029 1.5827 2.1658
1.4243 0.4532 1.5866 2.1798
1.4564 0.4611 1.6077 2.2178
1.4962 0.4714 1.637 2.2673
1.5059 0.47214 1.6329 2.2709
1.5131 0.47213 1.6261 2.2708
1.5096 0.4688 1.6079 2.2548
1.5118 0.46725 1.5959 2.2474
1.5091 0.46425 1.5789 2.2329
1.5155 0.46404 1.5715 2.2319
1.5197 0.4632 1.5619 2.2279
1.5068 0.45718 1.5349 2.1989
1.5013 0.45345 1.5156 2.181
1.5073 0.45324 1.5082 2.18
1.5057 0.45074 1.4932 2.1679
1.5068 0.44909 1.481 2.16
1.4917 0.44265 1.4532 2.129
1.496 0.44202 1.4444 2.126
1.5029 0.44213 1.4381 2.1266
1.5068 0.44142 1.4291 2.1231
1.5096 0.44037 1.419 2.1181
1.5005 0.43591 1.3979 2.0966
1.4978 0.43331 1.3829 2.0841
1.5025 0.4329 1.3749 2.0821
1.4945 0.42885 1.3554 2.0627
1.4929 0.42666 1.3418 2.0521
1.4916 0.42459 1.3287 2.0422
1.4894 0.42231 1.3149 2.0312
1.4939 0.4219 1.307 2.0292
1.4922 0.4198 1.2938 2.0191
nan nan nan -inf
nan nan nan -inf
nan nan nan -inf
nan nan nan -inf
nan nan nan -inf
nan nan nan -inf
nan nan nan -inf
nan nan nan -inf
nan nan nan -inf
nan nan nan -inf
nan nan nan -inf
nan nan nan -inf
-1.2994 0.37606 1.1453 1.7724
-1.2986 0.37732 1.1549 1.7783
-1.3036 0.3803 1.1699 1.7924
-1.2976 0.38008 1.175 1.7913
-1.3003 0.3824 1.188 1.8023
-1.3014 0.38432 1.1998 1.8113
-1.2946 0.38389 1.2042 1.8093
-1.3006 0.38727 1.2206 1.8252
-1.2997 0.38866 1.2308 1.8318
-1.2981 0.38982 1.2403 1.8372
-1.2964 0.39098 1.2498 1.8427
-1.2968 0.39278 1.2614 1.8512
-1.2967 0.39447 1.2726 1.8592
-1.2972 0.39639 1.2846 1.8682
-1.3008 0.39924 1.2997 1.8816
-1.296 0.39955 1.3065 1.8831
-1.2984 0.4021 1.3206 1.8951
-1.2979 0.40379 1.332 1.9031
-1.2987 0.4059 1.3447 1.913
-1.2947 0.40654 1.3527 1.916
-1.2907 0.40718 1.3606 1.9191
-1.2903 0.40897 1.3723 1.9275
-1.2904 0.41098 1.3848 1.937
-1.2869 0.41183 1.3935 1.941
-1.2991 0.41778 1.4194 1.969
-1.2921 0.41755 1.4244 1.9679
-1.2968 0.42115 1.4425 1.9849
-1.2968 0.42328 1.4556 1.9949
-1.291 0.42349 1.4621 1.9959
-1.287 0.42434 1.4708 1.9999
-1.2836 0.42538 1.4801 2.0048
-1.2872 0.42878 1.4977 2.0208
-1.2874 0.43111 1.5116 2.0318
-1.2933 0.43536 1.5323 2.0519
-1.2873 0.43567 1.5392 2.0533
-1.2882 0.43831 1.5543 2.0658
-1.2937 0.44255 1.5751 2.0858
-1.2916 0.44425 1.5869 2.0938
-1.2869 0.4451 1.5957 2.0978
-1.2886 0.44817 1.6125 2.1122
-1.2865 0.44996 1.6247 2.1207
-1.2799 0.45018 1.6312 2.1217
-1.2822 0.45357 1.6493 2.1377
-1.2831 0.45655 1.6658 2.1517
-1.2816 0.45866 1.6793 2.1617
-1.2799 0.46077 1.6927 2.1716
-1.2818 0.46416 1.7109 2.1876
-1.2811 0.46671 1.7261 2.1996
-1.2821 0.4699 1.7436 2.2146
-1.2806 0.47223 1.758 2.2256
-1.2787 0.47445 1.772 2.2361
-1.2779 0.47709 1.7876 2.2485
-1.2823 0.48176 1.8108 2.2705
-1.2821 0.48473 1.8277 2.2846
-1.2845 0.48876 1.8487 2.3036
-1.2737 0.4878 1.8507 2.299
-1.2789 0.49298 1.8761 2.3234
-1.2776 0.49574 1.8924 2.3365
-1.2767 0.49872 1.9094 2.3505
-1.2688 0.49893 1.9159 2.3515
-1.2672 0.50169 1.9322 2.3645
-1.267 0.50509 1.951 2.3805
-1.2725 0.51079 1.9787 2.4074
-1.2647 0.51121 1.986 2.4094
-1.2673 0.51588 2.0098 2.4314
-1.2733 0.52204 2.0395 2.4604
-1.2714 0.52501 2.0568 2.4744
-1.2622 0.52501 2.0625 2.4744
-1.253 0.52501 2.0681 2.4744
-1.1653 0.49189 1.9428 2.3183
-1.1132 0.47343 1.8749 2.2313
-1.0949 0.46919 1.863 2.2113
-1.0718 0.46282 1.8426 2.1813
-0.96122 0.41827 1.6695 1.9713
-0.91892 0.40299 1.6126 1.8993
-0.90067 0.39811 1.5971 1.8763
-0.89354 0.39811 1.6012 1.8763
-0.88638 0.39812 1.6051 1.8763
-0.89085 0.40339 1.6304 1.9012
-0.88449 0.40381 1.6361 1.9032
-0.93987 0.43267 1.7572 2.0392
-0.93841 0.43564 1.7735 2.0532
-1.109 0.51924 2.1188 2.4472
-1.1814 0.55786 2.2817 2.6292
-1.1939 0.56868 2.3313 2.6802
-1.1874 0.57059 2.3444 2.6892
-1.1769 0.57059 2.3497 2.6892
-1.2176 0.5956 2.4581 2.8071
-1.2139 0.59921 2.4785 2.8241
-1.2032 0.59942 2.4848 2.8251
-1.1972 0.60197 2.5007 2.8371
-1.181 0.59942 2.4954 2.8251
-1.1698 0.59942 2.5007 2.8251
-1.1509 0.59539 2.489 2.8061
-1.1288 0.58967 2.4701 2.7791
-1.1157 0.58861 2.4707 2.7741
-1.0844 0.57779 2.4302 2.7231
-1.0817 0.58221 2.4536 2.744
-1.0708 0.58221 2.4584 2.744
-1.0598 0.58221 2.4632 2.744
-1.0488 0.58221 2.4679 2.744
-1.0268 0.57606 2.4464 2.715
-0.99828 0.56609 2.4086 2.668
-0.98455 0.56439 2.4058 2.66
-0.9339 0.54126 2.3114 2.551
-0.89244 0.52302 2.2375 2.465
-0.87743 0.52005 2.2287 2.451
-0.86499 0.51856 2.2262 2.444
-0.85504 0.51857 2.2301 2.444
-0.84508 0.51857 2.2339 2.444
-0.97821 0.60743 2.6211 2.8629
-0.96785 0.60828 2.6291 2.8669
-0.96744 0.6155 2.6646 2.9009
-0.96509 0.62165 2.6956 2.9299
-0.96313 0.62823 2.7285 2.9609
-0.95254 0.62929 2.7373 2.9659
-0.94031 0.62929 2.7416 2.9659
-0.92994 0.63057 2.7513 2.9719
-0.91549 0.62908 2.7489 2.9649
-0.9032 0.62908 2.753 2.9649
-0.8882 0.62718 2.7487 2.9559
-0.87859 0.62909 2.761 2.9649
-0.86625 0.62909 2.7649 2.9649
-0.85131 0.62718 2.7603 2.9559
-0.85851 0.64178 2.8285 3.0247
-0.84811 0.64348 2.8398 3.0327
-0.83818 0.6456 2.8529 3.0427
-0.82842 0.64794 2.8669 3.0538
-0.81641 0.64858 2.8734 3.0568
-0.80936 0.65324 2.8978 3.0788
-0.799 0.65537 2.9108 3.0888
-0.78676 0.656 2.9171 3.0918
-0.77373 0.656 2.9206 3.0918
-0.75994 0.65537 2.9212 3.0888
-0.7452 0.65388 2.918 3.0818
-0.7172 0.64052 2.8615 3.0188
-0.70441 0.64052 2.8647 3.0188
-0.69162 0.64052 2.8678 3.0188
-0.69162 0.65261 2.9251 3.0758
-0.7026 0.67574 3.0319 3.1848
-0.70658 0.69293 3.1122 3.2658
-0.70774 0.70799 3.1831 3.3368
-0.69352 0.70799 3.1862 3.3368
-0.68007 0.70881 3.1929 3.3406
-0.6658 0.70881 3.196 3.3406
-0.65114 0.70838 3.197 3.3386
-0.63381 0.70499 3.1845 3.3226
-0.61865 0.70393 3.1825 3.3176
-0.60425 0.70372 3.1843 3.3166
-0.58985 0.70351 3.186 3.3156
-0.57562 0.70351 3.1886 3.3156
-0.56121 0.70329 3.1902 3.3146
-0.5463 0.70245 3.1888 3.3107
-0.53045 0.70032 3.1816 3.3007
-0.51624 0.70033 3.1839 3.3007
-0.50156 0.69969 3.1833 3.2977
-0.48734 0.69969 3.1855 3.2977
-0.47297 0.69948 3.1867 3.2967
-0.45874 0.69948 3.1888 3.2967
-0.44315 0.69736 3.1811 3.2867
-0.42842 0.69651 3.1792 3.2827
-0.41422 0.69651 3.1811 3.2827
-0.40001 0.69651 3.1829 3.2827
-0.38579 0.69651 3.1846 3.2827
-0.37157 0.69651 3.1863 3.2827
-0.35516 0.69227 3.1685 3.2627
-0.34091 0.69205 3.1691 3.2617
-0.32676 0.69205 3.1706 3.2617
-0.3126 0.69205 3.172 3.2617
-0.29834 0.69184 3.1724 3.2607
-0.28417 0.69184 3.1737 3.2607
-0.26967 0.69099 3.1711 3.2567
-0.25543 0.69078 3.1713 3.2557
-0.24126 0.69078 3.1724 3.2557
-0.2271 0.69078 3.1734 3.2557
-0.21292 0.69078 3.1744 3.2557
-0.19789 0.68781 3.1617 3.2417
-0.18378 0.68781 3.1625 3.2417
-0.1696 0.6876 3.1624 3.2407
-0.15548 0.6876 3.1631 3.2407
-0.14136 0.6876 3.1637 3.2407
-0.12727 0.68781 3.1653 3.2417
-0.11313 0.68781 3.1659 3.2417
-0.098996 0.68781 3.1663 3.2417
-0.084853 0.68778 3.1666 3.2415
-0.070695 0.6876 3.1661 3.2407
-0.056485 0.68672 3.1623 3.2365
-0.042339 0.68629 3.1606 3.2345
-0.028227 0.68629 3.1607 3.2345
-0.014114 0.68629 3.1608 3.2345
0 0.68633 3.161 3.2347
0.014113 0.68629 3.1608 3.2345
0.028226 0.68629 3.1607 3.2345
0.042236 0.68463 3.1529 3.2267
0.056313 0.68463 3.1527 3.2267
0.070389 0.68463 3.1524 3.2267
0.084464 0.68463 3.1521 3.2267
0.09869 0.68569 3.1566 3.2317
0.11285 0.68608 3.1579 3.2335
0.12694 0.68608 3.1573 3.2335
0.14091 0.68544 3.1538 3.2305
0.15499 0.68544 3.1531 3.2305
0.1695 0.68718 3.1604 3.2387
0.18361 0.68718 3.1596 3.2387
0.19771 0.68718 3.1588 3.2387
0.21142 0.6859 3.152 3.2327
0.22549 0.6859 3.151 3.2327
0.23956 0.6859 3.15 3.2327
0.25401 0.68696 3.1537 3.2377
0.26809 0.68696 3.1526 3.2377
0.28217 0.68696 3.1514 3.2377
0.29623 0.68696 3.1501 3.2377
0.31029 0.68696 3.1487 3.2377
0.32495 0.68823 3.1531 3.2437
0.30047 0.60997 2.7932 2.8748
0.31216 0.60844 2.7848 2.8676
0.31959 0.59907 2.7406 2.8234
0.33051 0.59671 2.7283 2.8123
0.34206 0.5956 2.7218 2.8071
0.35275 0.59315 2.709 2.7955
0.36491 0.59326 2.7079 2.7961
0.37622 0.59203 2.7007 2.7903
0.38753 0.59091 2.6938 2.785
0.39926 0.59047 2.6901 2.7829
0.41109 0.59021 2.6871 2.7817
0.42294 0.59002 2.6844 2.7808
0.43369 0.58834 2.6748 2.7729
0.44578 0.58854 2.6737 2.7738
0.45731 0.58803 2.6694 2.7714
0.46939 0.58823 2.6683 2.7724
0.48012 0.58679 2.6596 2.7656
0.49205 0.58686 2.6578 2.7659
0.50406 0.58703 2.6563 2.7667
0.51587 0.58698 2.6538 2.7665
0.52773 0.587 2.6516 2.7666
0.5387 0.58606 2.6449 2.7621
0.55097 0.58656 2.6447 2.7645
0.56213 0.58589 2.6392 2.7613
0.57427 0.58626 2.6384 2.763
0.58518 0.58539 2.6319 2.759
0.59653 0.58501 2.6275 2.7572
0.60738 0.58416 2.621 2.7532
0.61941 0.58448 2.6197 2.7547
0.63226 0.58555 2.6217 2.7597
0.64451 0.58605 2.6211 2.7621
0.65543 0.58536 2.6151 2.7588
0.66551 0.58396 2.6059 2.7522
0.67677 0.58365 2.6015 2.7507
0.68919 0.58433 2.6015 2.754
0.70051 0.58409 2.5974 2.7528
0.71167 0.58373 2.5926 2.7512
0.72352 0.58396 2.5904 2.7522
0.73566 0.58443 2.5892 2.7544
0.74714 0.58437 2.5857 2.7542
0.75867 0.58436 2.5823 2.7541
0.7704 0.58452 2.5796 2.7549
0.78161 0.5843 2.5751 2.7538
0.79266 0.58397 2.5702 2.7523
0.80589 0.58525 2.5722 2.7583
0.81604 0.5843 2.5644 2.7538
0.82841 0.58496 2.5636 2.7569
0.84165 0.58621 2.5654 2.7628
0.85085 0.58467 2.5549 2.7556
0.86412 0.58594 2.5566 2.7616
0.8776 0.58733 2.5587 2.7681
0.89479 0.59114 2.5714 2.7861
0.91246 0.59518 2.5849 2.8051
0.92619 0.59659 2.5869 2.8118
0.94258 0.59968 2.5962 2.8263
0.90472 0.56861 2.4576 2.6799
0.91568 0.5686 2.4535 2.6799
0.90801 0.55718 2.4002 2.626
0.91837 0.55697 2.3952 2.625
0.92693 0.55569 2.3856 2.619
0.93721 0.55548 2.3805 2.618
0.95036 0.55697 2.3827 2.625
0.96099 0.55696 2.3784 2.625
0.9753 0.55908 2.3831 2.635
0.99191 0.56248 2.3932 2.651
1.003 0.56269 2.3896 2.652
1.0194 0.56587 2.3986 2.667
1.0312 0.56651 2.3967 2.67
1.0427 0.56693 2.3939 2.672
1.0254 0.5519 2.3259 2.6011
1.0358 0.5519 2.3213 2.6011
1.0446 0.55105 2.3131 2.5971
1.0374 0.54192 2.2701 2.5541
1.0463 0.54129 2.2628 2.5511
1.0564 0.54129 2.2581 2.5511
1.0665 0.54128 2.2534 2.5511
1.0765 0.54128 2.2486 2.5511
1.0865 0.54128 2.2438 2.5511
1.0965 0.54128 2.2389 2.5511
1.0684 0.52265 2.1571 2.4632
1.0785 0.52285 2.1531 2.4642
1.0872 0.52243 2.1465 2.4622
1.0968 0.52243 2.1417 2.4622
1.1059 0.52221 2.1359 2.4612
1.1131 0.52115 2.1266 2.4562
1.1226 0.52115 2.1216 2.4562
1.1344 0.52221 2.1208 2.4612
1.1443 0.52242 2.1166 2.4622
1.1561 0.52348 2.1158 2.4672
1.141 0.51248 2.0662 2.4153
1.1569 0.51545 2.0731 2.4293
1.1695 0.51693 2.0738 2.4363
1.1787 0.51693 2.0686 2.4363
1.1914 0.51841 2.0692 2.4433
1.233 0.53242 2.1196 2.5093
1.2692 0.54387 2.1596 2.5633
1.2788 0.54387 2.1539 2.5633
1.2884 0.54387 2.1481 2.5633
1.2947 0.5425 2.137 2.5568
1.3035 0.5422 2.13 2.5554
1.3105 0.54114 2.12 2.5504
1.3199 0.54114 2.1141 2.5504
1.3241 0.53901 2.0999 2.5404
1.333 0.5388 2.0932 2.5394
1.3391 0.53752 2.0822 2.5334
1.3423 0.5351 2.0669 2.5219
1.3454 0.53267 2.0515 2.5105
1.3545 0.53267 2.0455 2.5105
1.3637 0.53266 2.0394 2.5105
1.3727 0.53266 2.0333 2.5105
1.3779 0.53118 2.0215 2.5034
1.3803 0.52864 2.0057 2.4915
1.3871 0.52781 1.9963 2.4876
1.3994 0.52908 1.9949 2.4936
1.4173 0.53247 2.0014 2.5095
1.4285 0.53332 1.9982 2.5135
1.4425 0.53522 1.999 2.5225
1.4642 0.53992 2.01 2.5446
1.4829 0.54352 2.0168 2.5616
1.5129 0.55116 2.0384 2.5976
1.522 0.55116 2.0316 2.5976
1.531 0.55115 2.0248 2.5976
1.5259 0.54607 1.9993 2.5737
1.5324 0.54524 1.9894 2.5697
1.5389 0.54439 1.9795 2.5657
1.5411 0.54205 1.9641 2.5547
1.5371 0.53759 1.9411 2.5337
1.5314 0.53262 1.9163 2.5102
1.5268 0.52807 1.8932 2.4888
1.5217 0.5234 1.8697 2.4668
1.5008 0.51342 1.8273 2.4198
1.4179 0.48244 1.7108 2.2738
1.3782 0.46643 1.6479 2.1983
1.3714 0.46167 1.6249 2.1759
1.3704 0.45891 1.6091 2.1628
1.3776 0.45891 1.603 2.1628
1.3847 0.4589 1.5968 2.1628
1.3906 0.45849 1.5892 2.1609
1.3964 0.45808 1.5815 2.1589
1.41 0.46019 1.5825 2.1689
1.4177 0.4604 1.5769 2.1699
1.4559 0.47049 1.605 2.2174
1.5023 0.48313 1.6414 2.277
1.5096 0.48312 1.6347 2.277
1.5169 0.48312 1.6279 2.277
1.5165 0.48069 1.613 2.2655
1.5012 0.47359 1.5825 2.2321
1.5069 0.47317 1.5743 2.23
1.5091 0.47168 1.5627 2.223
1.5079 0.46914 1.5475 2.2111
1.506 0.46639 1.5318 2.1981
1.5114 0.46596 1.5236 2.1961
1.5085 0.463 1.5072 2.1821
1.5097 0.4613 1.4949 2.1741
1.4975 0.45558 1.4697 2.1472
1.4936 0.45239 1.4528 2.1321
1.5008 0.45261 1.4468 2.1332
1.4988 0.45008 1.432 2.1212
1.5023 0.44922 1.4226 2.1172
1.4983 0.44615 1.4062 2.1027
1.4921 0.44245 1.3879 2.0853
1.4954 0.44159 1.3786 2.0813
1.4994 0.44097 1.3699 2.0783
1.4932 0.43737 1.3521 2.0613
1.497 0.43673 1.3434 2.0583
1.4855 0.43164 1.3212 2.0343
1.4863 0.43016 1.31 2.0274
1.4907 0.42975 1.3021 2.0254
1.4964 0.42973 1.2954 2.0254
nan nan nan -inf
nan nan nan -inf
nan nan nan -inf
nan nan nan -inf
nan nan nan -inf
nan nan nan -inf
nan nan nan -inf
nan nan nan -inf
nan nan nan -inf
nan nan nan -inf
nan nan nan -inf
nan nan nan -inf
-1.299 0.38362 1.1431 1.7724
-1.2969 0.3845 1.1516 1.7765
-1.2998 0.38689 1.1645 1.7875
-1.3007 0.38872 1.1759 1.796
-1.3001 0.39012 1.1859 1.8025
-1.2977 0.39099 1.1944 1.8065
-1.3034 0.39434 1.2104 1.8219
-1.304 0.39617 1.2219 1.8304
-1.2999 0.39661 1.2291 1.8324
-1.2969 0.39736 1.2372 1.8359
-1.3036 0.40114 1.2548 1.8533
-1.3008 0.40201 1.2634 1.8574
-1.2934 0.40146 1.2674 1.8548
-1.2859 0.40091 1.2715 1.8523
-1.301 0.40741 1.2979 1.8823
-1.3017 0.40945 1.3102 1.8918
-1.2934 0.40869 1.3136 1.8882
-1.293 0.41042 1.325 1.8962
-1.2948 0.4129 1.3388 1.9077
-1.2922 0.41399 1.3481 1.9127
-1.2838 0.41322 1.3513 1.9092
-1.2972 0.4195 1.3777 1.9382
-1.296 0.42112 1.3888 1.9457
-1.2861 0.41992 1.3906 1.9401
-1.2957 0.42511 1.4136 1.9641
-1.2933 0.42642 1.4237 1.9701
-1.2895 0.42727 1.4324 1.9741
-1.2889 0.42921 1.4446 1.983
-1.2934 0.43289 1.4628 2.0001
-1.2953 0.43571 1.4781 2.0131
-1.2873 0.43526 1.4824 2.011
-1.2887 0.43797 1.4974 2.0235
-1.2911 0.4411 1.5139 2.038
-1.2881 0.4424 1.5241 2.044
-1.2882 0.44479 1.5381 2.055
-1.2866 0.44661 1.5502 2.0635
-1.2867 0.44909 1.5646 2.0749
-1.2908 0.45299 1.5839 2.0929
-1.2893 0.45494 1.5965 2.1019
-1.2895 0.45754 1.6114 2.1139
-1.2852 0.45861 1.621 2.1189
-1.2828 0.46033 1.6328 2.1268
-1.2935 0.46683 1.6616 2.1568
-1.2866 0.46704 1.6682 2.1579
-1.2898 0.47094 1.6879 2.1759
-1.2843 0.47169 1.6963 2.1793
-1.2852 0.47481 1.7133 2.1938
-1.281 0.47612 1.7237 2.1998
-1.2808 0.47893 1.7397 2.2128
-1.2799 0.48153 1.7549 2.2248
-1.2835 0.48586 1.7764 2.2448
-1.2795 0.48735 1.7876 2.2517
-1.28 0.4906 1.8052 2.2667
-1.2786 0.4932 1.8205 2.2787
-1.2716 0.49363 1.8278 2.2807
-1.2795 0.49991 1.8568 2.3097
-1.2797 0.50326 1.875 2.3252
-1.2764 0.5053 1.8883 2.3346
-1.2837 0.51158 1.9175 2.3636
-1.2752 0.51158 1.9233 2.3636
-1.2708 0.51331 1.9355 2.3716
-1.2675 0.51548 1.9493 2.3816
-1.2725 0.52109 1.9763 2.4076
-1.2694 0.52346 1.9909 2.4185
-1.2725 0.52844 2.0156 2.4415
-1.2671 0.52996 2.0271 2.4485
-1.2673 0.53386 2.0477 2.4665
-1.2606 0.53494 2.0575 2.4716
-1.2514 0.53494 2.0631 2.4716
-1.209 0.52063 2.0133 2.4054
-1.1147 0.48362 1.8752 2.2344
-1.0959 0.47908 1.8625 2.2134
-1.0792 0.4754 1.853 2.1964
-0.99143 0.44012 1.72 2.0335
-0.91843 0.4109 1.6099 1.8985
-0.90307 0.40723 1.5996 1.8815
-0.89592 0.40723 1.6036 1.8815
-0.88874 0.40723 1.6076 1.8815
-0.8932 0.41261 1.6328 1.9063
-0.91842 0.42776 1.6969 1.9764
-0.93342 0.43837 1.7432 2.0254
-0.94847 0.44919 1.7905 2.0754
-1.0678 0.51001 2.0377 2.3564
-1.1948 0.5756 2.3051 2.6594
-1.1956 0.58101 2.3321 2.6844
-1.1834 0.58011 2.3338 2.6802
-1.2014 0.59418 2.3958 2.7452
-1.1959 0.59678 2.4117 2.7572
-1.1881 0.59829 2.4231 2.7642
-1.1772 0.59829 2.4284 2.7643
-1.1664 0.5983 2.4337 2.7643
-1.1517 0.59635 2.4309 2.7553
-1.1396 0.5957 2.4334 2.7523
-1.1283 0.59549 2.4376 2.7513
-1.1158 0.59462 2.4391 2.7473
-1.086 0.58445 2.4022 2.7003
-0.98844 0.53727 2.2127 2.4823
-1.0396 0.57078 2.3554 2.6371
-0.99392 0.5513 2.2795 2.5471
-0.97909 0.5487 2.2732 2.5351
-0.96777 0.54806 2.2748 2.5321
-0.95344 0.54568 2.2692 2.5212
-0.94179 0.54481 2.2699 2.5172
-0.92091 0.53854 2.2479 2.4882
-0.89768 0.53075 2.2194 2.4522
-0.88268 0.52772 2.2107 2.4382
-0.87172 0.52707 2.2119 2.4352
-0.85581 0.52339 2.2003 2.4182
-0.84597 0.52339 2.2041 2.4182
-0.84746 0.5305 2.2378 2.451
-0.84532 0.53548 2.2626 2.474
-0.88583 0.56794 2.4038 2.624
-0.92878 0.60279 2.5555 2.785
-0.92887 0.61037 2.5918 2.82
-0.92151 0.61318 2.6079 2.833
-0.90985 0.61318 2.612 2.833
-0.89405 0.61037 2.604 2.8201
-0.8824 0.61037 2.608 2.8201
-0.86919 0.60929 2.6073 2.8151
-0.85753 0.60929 2.6111 2.8151
-0.84586 0.60929 2.6149 2.8151
-0.84809 0.61947 2.6624 2.8621
-0.83618 0.61947 2.6662 2.8621
-0.85128 0.63978 2.7574 2.9559
-0.84974 0.648 2.7967 2.9939
-0.83807 0.64865 2.8033 2.9969
-0.82471 0.648 2.8042 2.9939
-0.80945 0.64584 2.7985 2.9839
-0.79694 0.64584 2.8021 2.9839
-0.7831 0.64476 2.8009 2.9789
-0.77057 0.64476 2.8044 2.9789
-0.7593 0.64584 2.8125 2.9839
-0.74547 0.64476 2.8112 2.9789
-0.73266 0.64454 2.8135 2.9779
-0.72008 0.64455 2.8168 2.9779
-0.70511 0.64238 2.8105 2.968
-0.67504 0.62615 2.7425 2.893
-0.66278 0.62615 2.7455 2.893
-0.6505 0.62615 2.7485 2.893
-0.71675 0.7032 3.0899 3.249
-0.68905 0.68931 3.032 3.1848
-0.69267 0.70685 3.1122 3.2658
-0.69476 0.72351 3.1888 3.3428
-0.6805 0.72351 3.1918 3.3428
-0.66623 0.72351 3.1948 3.3428
-0.65175 0.7233 3.1968 3.3418
-0.63631 0.722 3.194 3.3358
-0.62128 0.72114 3.1929 3.3318
-0.60537 0.71919 3.1871 3.3228
-0.58934 0.71702 3.1801 3.3128
-0.57512 0.71702 3.1827 3.3128
-0.56089 0.71702 3.1853 3.3128
-0.54648 0.71681 3.1868 3.3118
-0.53176 0.71616 3.1863 3.3088
-0.51673 0.71508 3.1839 3.3038
-0.50249 0.71508 3.1861 3.3038
-0.48781 0.71443 3.1855 3.3008
-0.47342 0.71421 3.1866 3.2998
-0.4582 0.7127 3.182 3.2928
-0.44384 0.71248 3.183 3.2918
-0.42961 0.71248 3.185 3.2918
-0.41487 0.71162 3.183 3.2878
-0.40088 0.71205 3.1867 3.2898
-0.38664 0.71205 3.1885 3.2898
-0.37238 0.71205 3.1902 3.2898
-0.3579 0.71162 3.1899 3.2878
-0.34228 0.70881 3.1788 3.2748
-0.32767 0.70794 3.1765 3.2708
-0.31338 0.70772 3.1769 3.2698
-0.29918 0.70772 3.1783 3.2698
-0.28497 0.70772 3.1796 3.2698
-0.27042 0.70686 3.1769 3.2658
-0.25599 0.70621 3.1752 3.2629
-0.24126 0.70466 3.1693 3.2557
-0.2271 0.70466 3.1704 3.2557
-0.21292 0.70466 3.1714 3.2557
-0.19789 0.70163 3.1586 3.2417
-0.18378 0.70163 3.1595 3.2417
-0.1696 0.70141 3.1593 3.2407
-0.15548 0.70141 3.16 3.2407
-0.1414 0.70163 3.1617 3.2417
-0.12727 0.70163 3.1623 3.2417
-0.11313 0.70163 3.1628 3.2417
-0.098996 0.70163 3.1633 3.2417
-0.084857 0.70163 3.1637 3.2417
-0.070695 0.70141 3.1631 3.2407
-0.056558 0.70141 3.1634 3.2407
-0.042341 0.70011 3.1577 3.2347
-0.028228 0.70011 3.1579 3.2347
-0.014115 0.70011 3.158 3.2347
0 0.70206 3.1668 3.2437
0.014153 0.70206 3.1668 3.2437
0.028306 0.70206 3.1667 3.2437
0.042236 0.69838 3.1499 3.2267
0.056313 0.69838 3.1497 3.2267
0.070389 0.69838 3.1494 3.2267
0.084595 0.69946 3.1539 3.2317
0.098781 0.70011 3.1565 3.2347
0.11289 0.70011 3.156 3.2347
0.12699 0.70011 3.1555 3.2347
0.14109 0.70011 3.1549 3.2347
0.15519 0.70011 3.1542 3.2347
0.16929 0.70011 3.1535 3.2347
0.1836 0.70098 3.1566 3.2387
0.19771 0.70098 3.1557 3.2387
0.21142 0.69968 3.149 3.2327
0.22549 0.69968 3.148 3.2327
0.24046 0.70231 3.1588 3.2449
0.25457 0.70231 3.1577 3.2448
0.26868 0.70231 3.1565 3.2448
0.28253 0.70166 3.1524 3.2418
0.29661 0.70166 3.1511 3.2418
0.31069 0.70166 3.1497 3.2418
0.2901 0.62676 2.8122 2.8958
0.29974 0.62072 2.7838 2.8678
0.30449 0.60541 2.7138 2.7971
0.31972 0.61135 2.739 2.8246
0.33067 0.60899 2.727 2.8137
0.341 0.6057 2.7108 2.7985
0.35338 0.60615 2.7112 2.8005
0.36439 0.60431 2.7014 2.7921
0.37544 0.60268 2.6924 2.7845
0.38727 0.60238 2.6894 2.7831
0.39845 0.60111 2.682 2.7773
0.40972 0.60007 2.6756 2.7725
0.42185 0.60031 2.6748 2.7736
0.43385 0.60039 2.6732 2.774
0.44529 0.59971 2.6682 2.7708
0.45628 0.59849 2.6608 2.7651
0.46882 0.59933 2.6624 2.769
0.47975 0.59812 2.6549 2.7634
0.49185 0.59841 2.6541 2.7648
0.50366 0.59836 2.6516 2.7646
0.51516 0.59796 2.6476 2.7627
0.52669 0.59762 2.6437 2.7611
0.53729 0.59627 2.6354 2.7549
0.55019 0.5975 2.6384 2.7606
0.56179 0.5973 2.635 2.7597
0.57361 0.59736 2.6327 2.7599
0.5856 0.59758 2.6311 2.761
0.59685 0.59709 2.6263 2.7587
0.60771 0.59623 2.6199 2.7547
0.62012 0.59691 2.6201 2.7579
0.63175 0.59684 2.617 2.7575
0.64308 0.5965 2.6127 2.756
0.65472 0.59648 2.6097 2.7559
0.66705 0.59708 2.6094 2.7587
0.67687 0.59547 2.5993 2.7512
0.68814 0.59517 2.5949 2.7498
0.69887 0.59444 2.5887 2.7464
0.71104 0.59495 2.5877 2.7488
0.72268 0.59501 2.5848 2.7491
0.73334 0.5943 2.5785 2.7458
0.7453 0.59465 2.5767 2.7474
0.75732 0.59505 2.5751 2.7493
0.76924 0.59538 2.5731 2.7508
0.78086 0.59547 2.57 2.7512
0.79248 0.59558 2.567 2.7517
0.80353 0.59527 2.5621 2.7503
0.81688 0.59667 2.5644 2.7568
0.82775 0.59625 2.559 2.7548
0.83983 0.59671 2.5572 2.757
0.85229 0.59744 2.5566 2.7603
0.86523 0.5985 2.5572 2.7652
0.87681 0.59861 2.5538 2.7657
0.89333 0.60205 2.5645 2.7816
0.90693 0.60348 2.5666 2.7882
0.93383 0.61362 2.6056 2.8351
0.94526 0.61349 2.6008 2.8345
0.95729 0.61376 2.5977 2.8357
1.0455 0.66231 2.7986 3.06
0.90797 0.56837 2.3976 2.626
0.90404 0.55932 2.3554 2.5842
0.91279 0.55824 2.3468 2.5792
0.92327 0.55824 2.3427 2.5792
0.93373 0.55823 2.3385 2.5792
0.9621 0.56884 2.3787 2.6282
0.97383 0.56949 2.377 2.6312
0.9938 0.5749 2.3952 2.6562
1.0045 0.5749 2.3907 2.6561
1.0152 0.57489 2.3862 2.6561
1.0131 0.56775 2.3521 2.6231
1.0162 0.56364 2.3305 2.6041
0.97262 0.53402 2.2037 2.4673
0.98246 0.53402 2.1993 2.4673
0.99228 0.53402 2.1949 2.4673
1.0021 0.53402 2.1905 2.4673
1.0119 0.53402 2.186 2.4673
1.015 0.53055 2.1673 2.4513
1.0247 0.53055 2.1627 2.4513
1.0343 0.53055 2.1581 2.4513
1.0439 0.53055 2.1534 2.4513
1.0587 0.53314 2.1593 2.4632
1.0688 0.53336 2.1554 2.4642
1.0513 0.51997 2.0966 2.4024
1.0523 0.51586 2.0754 2.3834
1.0616 0.51586 2.0706 2.3834
1.0793 0.51997 2.0823 2.4024
1.0905 0.52083 2.0809 2.4064
1.1016 0.5217 2.0795 2.4104
1.1108 0.5217 2.0745 2.4104
1.1201 0.52169 2.0695 2.4103
1.1293 0.52169 2.0645 2.4103
1.1292 0.51739 2.0425 2.3905
1.1383 0.51739 2.0374 2.3905
1.1392 0.51371 2.0178 2.3735
1.1482 0.51371 2.0127 2.3735
1.1422 0.50703 1.9815 2.3426
1.1838 0.5215 2.0327 2.4094
1.1929 0.5215 2.0274 2.4094
1.2464 0.54076 2.0967 2.4984
1.2146 0.52304 2.0226 2.4166
1.2621 0.53949 2.0806 2.4926
1.2816 0.54382 2.0916 2.5126
1.2924 0.54446 2.0883 2.5155
1.31 0.54792 2.0958 2.5315
1.3194 0.54792 2.0899 2.5315
1.3287 0.54792 2.084 2.5315
1.3333 0.54599 2.0707 2.5226
1.3383 0.54427 2.0582 2.5146
1.333 0.53842 2.0301 2.4876
1.3399 0.53755 2.0209 2.4836
1.3462 0.53647 2.0108 2.4786
1.3552 0.53647 2.0048 2.4786
1.3562 0.53334 1.9871 2.4642
1.3637 0.53281 1.979 2.4617
1.3736 0.53324 1.9745 2.4637
1.383 0.53346 1.9691 2.4647
1.3918 0.53345 1.9629 2.4647
1.4107 0.53735 1.971 2.4827
1.4287 0.54082 1.9774 2.4987
1.4422 0.54257 1.9773 2.5068
1.4551 0.54408 1.9763 2.5138
1.4773 0.54906 1.9878 2.5368
1.4955 0.55252 1.9937 2.5528
1.4779 0.5428 1.9521 2.5079
1.4932 0.54518 1.954 2.5189
1.5162 0.55037 1.9658 2.5429
1.5249 0.55037 1.959 2.5428
1.5337 0.55037 1.9522 2.5428
1.5369 0.54842 1.9384 2.5338
1.5322 0.54368 1.9148 2.5119
1.523 0.5374 1.8859 2.4829
1.5221 0.53415 1.8677 2.4679
1.4908 0.5203 1.8126 2.4039
1.4079 0.48871 1.6963 2.258
1.3791 0.47617 1.6466 2.2
1.3782 0.47335 1.6308 2.187
1.3735 0.46924 1.6105 2.168
1.3806 0.46923 1.6043 2.168
1.3878 0.46925 1.5981 2.168
1.395 0.46926 1.592 2.1681
1.4008 0.46882 1.5842 2.1661
1.4078 0.46882 1.5779 2.166
1.4169 0.46948 1.5739 2.1691
1.4587 0.48096 1.6058 2.2221
1.5002 0.49221 1.6367 2.2741
1.5075 0.49221 1.63 2.2741
1.5131 0.49168 1.6215 2.2717
1.5153 0.49006 1.6094 2.2642
1.5151 0.48768 1.5948 2.2532
1.5148 0.48529 1.5803 2.2422
1.5032 0.47935 1.5542 2.2147
1.5084 0.47882 1.5458 2.2122
1.5126 0.47795 1.5362 2.2082
1.5057 0.47363 1.5156 2.1883
1.5056 0.47147 1.502 2.1783
1.5116 0.47125 1.4945 2.1773
1.5043 0.46693 1.4741 2.1573
1.5046 0.46498 1.4613 2.1483
1.5167 0.46672 1.46 2.1563
1.5003 0.45969 1.4313 2.1239
1.4982 0.45709 1.4165 2.1119
1.492 0.45331 1.3982 2.0944
1.4947 0.45224 1.3882 2.0894
1.4934 0.44996 1.3745 2.0789
1.4963 0.44899 1.3649 2.0745
1.4966 0.44727 1.353 2.0665
1.4877 0.44283 1.3329 2.046
1.4955 0.44338 1.3279 2.0485
1.4904 0.44014 1.3115 2.0335
1.4904 0.43841 1.2998 2.0256
1.4961 0.43839 1.293 2.0255
nan nan nan -inf
nan nan nan -inf
nan nan nan -inf
nan nan nan -inf
nan nan nan -inf
nan nan nan -inf
nan nan nan -inf
nan nan nan -inf
nan nan nan -inf
nan nan nan -inf
nan nan nan -inf
nan nan nan -inf
-1.3026 0.39234 1.1444 1.7777
-1.2989 0.39277 1.1514 1.7797
-1.3024 0.39541 1.165 1.7916
-1.2994 0.39608 1.1728 1.7947
-1.3006 0.39805 1.1845 1.8036
-1.301 0.39981 1.1955 1.8116
-1.2964 0.40004 1.202 1.8126
-1.296 0.40157 1.2125 1.8196
-1.2955 0.40311 1.2229 1.8265
-1.3034 0.40731 1.2415 1.8456
-1.2975 0.40719 1.2469 1.845
-1.2922 0.40729 1.253 1.8455
-1.2984 0.41105 1.2704 1.8625
-1.2945 0.41159 1.2779 1.865
-1.298 0.41456 1.2929 1.8784
-1.2991 0.41677 1.3057 1.8884
-1.3001 0.41897 1.3184 1.8984
-1.2949 0.4192 1.3249 1.8994
-1.2869 0.41853 1.3285 1.8964
-1.2904 0.42162 1.3442 1.9104
-1.2924 0.42426 1.3584 1.9224
-1.287 0.42447 1.3648 1.9233
-1.2968 0.42977 1.3877 1.9473
-1.2946 0.43109 1.3977 1.9533
-1.2929 0.43263 1.4085 1.9603
-1.2872 0.43285 1.415 1.9613
-1.29 0.43594 1.4309 1.9753
-1.2885 0.43758 1.4421 1.9827
-1.2914 0.44077 1.4584 1.9972
-1.2855 0.441 1.4649 1.9982
-1.2802 0.44144 1.4721 2.0002
-1.2921 0.44785 1.4993 2.0292
-1.2821 0.44672 1.5012 2.0241
-1.2962 0.454 1.5315 2.0571
-1.2931 0.45533 1.5418 2.0631
-1.2912 0.4571 1.5536 2.0712
-1.2842 0.45709 1.5593 2.0711
-1.2876 0.46083 1.5778 2.0881
-1.2867 0.46304 1.5912 2.0981
-1.2863 0.46547 1.6053 2.1091
-1.2858 0.4679 1.6195 2.1201
-1.2875 0.4712 1.6366 2.135
-1.2874 0.47383 1.6516 2.147
-1.2841 0.47538 1.6627 2.154
-1.2779 0.47582 1.67 2.156
-1.2775 0.47848 1.6851 2.168
-1.2807 0.48255 1.7051 2.1865
-1.2832 0.4864 1.7245 2.2039
-1.2871 0.49081 1.7459 2.2239
-1.2856 0.49324 1.7603 2.2349
-1.2846 0.49589 1.7756 2.2469
-1.2814 0.49776 1.788 2.2554
-1.2759 0.49874 1.7972 2.2598
-1.2797 0.50337 1.8197 2.2808
-1.2782 0.50602 1.835 2.2928
-1.2855 0.51221 1.8632 2.3209
-1.2783 0.51265 1.8706 2.3229
-1.2835 0.51815 1.8964 2.3478
-1.2799 0.52013 1.9094 2.3567
-1.2724 0.52057 1.9167 2.3588
-1.2681 0.52234 1.9289 2.3668
-1.2658 0.52499 1.9444 2.3788
-1.2714 0.53095 1.9722 2.4058
-1.2767 0.5369 2 2.4327
-1.2787 0.54152 2.0229 2.4537
-1.2696 0.54152 2.0286 2.4537
-1.2682 0.54483 2.0467 2.4687
-1.2596 0.54505 2.0532 2.4697
-1.2504 0.54506 2.0589 2.4697
-1.2412 0.54506 2.0644 2.4697
-1.1595 0.51303 1.9483 2.3246
-1.1117 0.4956 1.8871 2.2456
-1.0792 0.48478 1.8508 2.1966
-1.0368 0.46934 1.7965 2.1266
-0.92809 0.42343 1.6249 1.9186
-0.90882 0.41792 1.6079 1.8936
-0.90162 0.41792 1.6119 1.8936
-0.89441 0.41792 1.6159 1.8936
-0.88617 0.41745 1.6181 1.8915
-0.92214 0.43797 1.7018 1.9845
-0.91544 0.43842 1.7076 1.9865
-0.95623 0.46181 1.803 2.0925
-1.1684 0.56907 2.2271 2.5785
-1.1777 0.57857 2.2695 2.6215
-1.1734 0.58144 2.286 2.6345
-1.1741 0.58694 2.313 2.6595
-1.1747 0.59244 2.3399 2.6844
-1.1642 0.59244 2.3451 2.6844
-1.1515 0.59134 2.346 2.6794
-1.141 0.59134 2.3511 2.6794
-1.1305 0.59134 2.3562 2.6794
-1.1229 0.59289 2.3674 2.6864
-1.1094 0.59135 2.3662 2.6794
-1.0988 0.59135 2.3712 2.6795
-1.0399 0.56509 2.2705 2.5605
-0.95409 0.5236 2.1081 2.3725
-0.98838 0.54784 2.2102 2.4823
-0.9367 0.52444 2.12 2.3763
-0.92721 0.52445 2.1242 2.3763
-0.9177 0.52445 2.1283 2.3763
-0.90817 0.52445 2.1324 2.3763
-0.89863 0.52445 2.1364 2.3763
-0.8928 0.52666 2.1495 2.3863
-0.88318 0.52666 2.1534 2.3863
-0.87354 0.52666 2.1574 2.3863
-0.86388 0.52666 2.1613 2.3864
-0.85421 0.52666 2.1651 2.3864
-0.84451 0.52666 2.1689 2.3864
-0.84594 0.53369 2.2016 2.4182
-0.83954 0.5359 2.2145 2.4282
-0.82962 0.5359 2.2183 2.4282
-0.84906 0.5551 2.3016 2.5152
-0.89278 0.59085 2.4538 2.6772
-0.89991 0.60299 2.5083 2.7322
-0.88901 0.60321 2.5132 2.7332
-0.87776 0.60322 2.5172 2.7332
-0.86617 0.603 2.5202 2.7322
-0.81328 0.57364 2.4012 2.5992
-0.80253 0.57365 2.4048 2.5992
-0.79176 0.57365 2.4083 2.5992
-0.79511 0.58402 2.4555 2.6462
-0.78411 0.58402 2.459 2.6462
-0.83645 0.63187 2.6643 2.8631
-0.82856 0.63496 2.681 2.8771
-0.8228 0.63982 2.7052 2.8991
-0.81069 0.63982 2.7089 2.8991
-0.80931 0.64843 2.749 2.9381
-0.7989 0.64997 2.7591 2.9451
-0.79136 0.65395 2.7796 2.9631
-0.78102 0.65571 2.7906 2.9711
-0.76879 0.65594 2.795 2.9721
-0.75628 0.65594 2.7984 2.9721
-0.7415 0.65395 2.7933 2.9631
-0.72826 0.65329 2.7938 2.9601
-0.69544 0.63475 2.7176 2.8761
-0.6752 0.62725 2.6886 2.8421
-0.63447 0.6001 2.5751 2.7191
-0.62294 0.60011 2.5779 2.7191
-0.6114 0.60011 2.5806 2.7191
-0.59985 0.60011 2.5834 2.7191
-0.71503 0.7294 3.1432 3.305
-0.70733 0.73602 3.1749 3.335
-0.69665 0.73977 3.1942 3.352
-0.68236 0.73977 3.1973 3.352
-0.66805 0.73977 3.2003 3.352
-0.65138 0.73712 3.1918 3.34
-0.63443 0.73404 3.1813 3.326
-0.62019 0.73404 3.1841 3.326
-0.60594 0.73404 3.1869 3.326
-0.59168 0.73404 3.1896 3.326
-0.57723 0.73382 3.1912 3.325
-0.56295 0.73382 3.1938 3.325
-0.54667 0.73117 3.1847 3.313
-0.53242 0.73117 3.1871 3.313
-0.51738 0.73007 3.1847 3.308
-0.50267 0.72941 3.1841 3.305
-0.48842 0.72941 3.1863 3.305
-0.4723 0.72654 3.1759 3.292
-0.45808 0.72654 3.178 3.292
-0.44359 0.7261 3.1781 3.29
-0.42937 0.7261 3.18 3.29
-0.41501 0.72588 3.181 3.289
-0.40054 0.72544 3.1808 3.287
-0.38571 0.72433 3.1778 3.282
-0.37149 0.72433 3.1795 3.282
-0.35727 0.72433 3.1811 3.282
-0.34303 0.72433 3.1827 3.282
-0.32879 0.72433 3.1842 3.282
-0.31338 0.72165 3.1738 3.2698
-0.29918 0.72165 3.1752 3.2698
-0.28497 0.72165 3.1765 3.2698
-0.27042 0.72076 3.1738 3.2658
-0.25599 0.7201 3.1721 3.2629
-0.24179 0.7201 3.1732 3.2629
-0.2276 0.7201 3.1742 3.2629
-0.21339 0.7201 3.1752 3.2629
-0.19913 0.71988 3.1752 3.2619
-0.18447 0.71812 3.1683 3.2539
-0.17024 0.7179 3.1681 3.2529
-0.15578 0.71657 3.163 3.2469
-0.14162 0.71657 3.1636 3.2469
-0.12747 0.71657 3.1642 3.2469
-0.11352 0.7179 3.1706 3.2529
-0.099337 0.7179 3.1711 3.2529
-0.08515 0.7179 3.1715 3.2529
-0.070961 0.7179 3.1719 3.2529
-0.056771 0.7179 3.1721 3.2529
-0.042422 0.71525 3.1607 3.2409
-0.028387 0.7179 3.1725 3.2529
-0.014194 0.7179 3.1726 3.2529
0 0.71525 3.1609 3.2409
0.014115 0.71392 3.1551 3.2349
0.028229 0.71392 3.155 3.2349
0.042343 0.71392 3.1548 3.2349
0.056613 0.71591 3.1634 3.2439
0.070764 0.71591 3.1631 3.2439
0.084913 0.71591 3.1627 3.2439
0.098939 0.71503 3.1584 3.2399
0.11289 0.71392 3.1531 3.2349
0.127 0.71392 3.1525 3.2349
0.1411 0.71392 3.1519 3.2349
0.15539 0.71481 3.1552 3.2389
0.16956 0.71503 3.1554 3.2399
0.18367 0.71503 3.1546 3.2399
0.19778 0.71503 3.1538 3.2399
0.21189 0.71503 3.1529 3.2399
0.22613 0.71547 3.1538 3.2419
0.24024 0.71547 3.1528 3.2419
0.25457 0.71613 3.1546 3.2448
0.26862 0.71595 3.1526 3.244
0.28253 0.71547 3.1493 3.2418
0.25409 0.61291 2.6967 2.7771
0.26995 0.62164 2.734 2.8167
0.28772 0.63385 2.7864 2.872
0.29977 0.63298 2.7812 2.8681
0.30334 0.61499 2.7009 2.7866
0.32061 0.62513 2.744 2.8325
0.3307 0.62103 2.7245 2.8139
0.34229 0.61995 2.7183 2.809
0.35259 0.61669 2.7025 2.7943
0.36319 0.61419 2.6899 2.7829
0.37488 0.61362 2.6858 2.7804
0.38646 0.61294 2.6811 2.7773
0.39795 0.61218 2.676 2.7738
0.4101 0.61244 2.6753 2.775
0.42174 0.61198 2.6715 2.7729
0.43266 0.61053 2.6632 2.7664
0.44507 0.61122 2.6643 2.7695
0.45675 0.61089 2.6608 2.768
0.46805 0.61011 2.6554 2.7645
0.47964 0.60976 2.6517 2.7629
0.49147 0.60973 2.6494 2.7627
0.50353 0.60998 2.6483 2.7639
0.51461 0.60908 2.6421 2.7598
0.52597 0.60855 2.6375 2.7574
0.53765 0.60842 2.6346 2.7568
0.54892 0.60786 2.6297 2.7543
0.55966 0.60675 2.6224 2.7492
0.57263 0.60807 2.6256 2.7552
0.58378 0.60746 2.6203 2.7524
0.59534 0.6073 2.617 2.7517
0.608 0.60826 2.6184 2.7561
0.62005 0.6086 2.6172 2.7576
0.63098 0.60785 2.6112 2.7542
0.64136 0.60662 2.603 2.7487
0.65316 0.60677 2.6008 2.7493
0.66439 0.60641 2.5963 2.7477
0.67512 0.60562 2.5899 2.7441
0.6873 0.60615 2.5891 2.7465
0.69918 0.60642 2.5872 2.7477
0.71121 0.60682 2.5857 2.7495
0.72177 0.60598 2.5789 2.7457
0.73461 0.60706 2.5803 2.7506
0.74576 0.60674 2.5756 2.7492
0.75578 0.60554 2.5672 2.7438
0.76819 0.60628 2.5669 2.7471
0.77926 0.60596 2.5621 2.7457
0.78995 0.60538 2.5561 2.743
0.80204 0.60588 2.5547 2.7453
0.81519 0.60717 2.5565 2.7511
0.82662 0.60717 2.5528 2.7511
0.83853 0.60753 2.5506 2.7528
0.85258 0.60943 2.5548 2.7614
0.86645 0.61115 2.5581 2.7692
0.87956 0.61232 2.5591 2.7745
0.89349 0.61403 2.5623 2.7822
0.90884 0.61667 2.5693 2.7942
0.92784 0.62171 2.5861 2.817
0.94236 0.62367 2.5901 2.8259
0.9546 0.6241 2.5877 2.8278
1.1597 0.74909 3.1007 3.3942
1.1372 0.72592 2.9998 3.2892
0.904 0.57032 2.3528 2.5842
0.91275 0.56922 2.3442 2.5792
0.89895 0.55425 2.2785 2.5114
0.90913 0.55425 2.2745 2.5113
0.91929 0.55425 2.2704 2.5113
0.95979 0.57234 2.3402 2.5933
0.97773 0.57676 2.3539 2.6133
0.99959 0.58338 2.3765 2.6433
1.0102 0.58337 2.372 2.6433
1.0208 0.58337 2.3674 2.6433
0.99705 0.56395 2.2842 2.5553
0.97257 0.54453 2.2012 2.4673
0.97889 0.54258 2.1889 2.4585
0.98143 0.5386 2.1685 2.4405
0.99031 0.53816 2.1623 2.4385
0.99874 0.5375 2.1552 2.4354
1.0067 0.53661 2.1472 2.4314
1.0125 0.53462 2.1347 2.4224
1.0276 0.53749 2.1416 2.4354
1.0333 0.5355 2.1291 2.4264
1.0411 0.53462 2.1209 2.4224
1.0506 0.53462 2.1163 2.4224
1.0408 0.52494 2.0733 2.3786
1.0505 0.52516 2.0695 2.3795
1.0598 0.52516 2.0648 2.3795
1.069 0.52516 2.06 2.3795
1.0782 0.52515 2.0552 2.3795
1.0874 0.52515 2.0503 2.3795
1.1016 0.52758 2.0549 2.3905
1.115 0.52956 2.0577 2.3995
1.0961 0.51635 2.0015 2.3396
1.1065 0.51701 1.9991 2.3426
1.1164 0.51745 1.9958 2.3446
1.1243 0.51701 1.9891 2.3426
1.1332 0.51701 1.984 2.3426
1.1397 0.51593 1.9748 2.3377
1.1519 0.51745 1.9755 2.3446
1.1666 0.52009 1.9804 2.3566
1.172 0.51856 1.9693 2.3497
1.1733 0.51527 1.9516 2.3347
1.182 0.51526 1.9463 2.3347
1.2468 0.53954 2.0325 2.4447
1.278 0.54903 2.0625 2.4877
1.2888 0.54969 2.0592 2.4907
1.2995 0.55035 2.0559 2.4937
1.2846 0.54022 2.0124 2.4478
1.2999 0.54287 2.0164 2.4598
1.309 0.54287 2.0106 2.4598
1.3179 0.54286 2.0047 2.4598
1.3258 0.54242 1.9972 2.4578
1.3304 0.54065 1.9847 2.4497
1.3027 0.5259 1.9247 2.3829
1.3113 0.52589 1.9189 2.3829
1.3254 0.5281 1.921 2.3929
1.3395 0.5303 1.9231 2.4028
1.3565 0.53361 1.929 2.4178
1.368 0.53471 1.9269 2.4228
1.3831 0.53726 1.9299 2.4344
1.4006 0.5407 1.936 2.4499
1.4219 0.54555 1.947 2.4719
1.4387 0.54864 1.9516 2.4859
1.448 0.54885 1.9459 2.4869
1.4608 0.5504 1.9449 2.4939
1.4478 0.54226 1.9097 2.457
1.4581 0.54292 1.9055 2.46
1.4779 0.54711 1.9136 2.479
1.5086 0.55527 1.9354 2.516
1.5173 0.55527 1.9287 2.516
1.5153 0.55142 1.9085 2.4985
1.5132 0.54757 1.8885 2.4811
1.5216 0.54757 1.8817 2.4811
1.517 0.54293 1.8589 2.4601
1.4795 0.52661 1.7965 2.3861
1.4046 0.49727 1.6901 2.2532
1.3777 0.48513 1.6427 2.1981
1.3731 0.48093 1.6224 2.1791
1.3765 0.4796 1.6117 2.1731
1.3859 0.48038 1.6082 2.1767
1.3922 0.48006 1.6009 2.1752
1.3974 0.4794 1.5925 2.1722
1.4019 0.47851 1.5833 2.1682
1.4093 0.47863 1.5774 2.1687
1.4331 0.48427 1.5895 2.1943
1.4854 0.4995 1.6329 2.2633
1.4934 0.49971 1.6269 2.2642
1.509 0.50248 1.6292 2.2768
1.5246 0.50525 1.6314 2.2893
1.5111 0.4984 1.6025 2.2583
1.5096 0.49554 1.5866 2.2454
1.5058 0.49201 1.5686 2.2293
1.5122 0.4918 1.5611 2.2284
1.5007 0.48583 1.5355 2.2014
1.5055 0.48518 1.5267 2.1984
1.5055 0.48298 1.5131 2.1884
1.5012 0.47945 1.4953 2.1724
1.5006 0.47714 1.4814 2.162
1.5013 0.47527 1.4689 2.1535
1.4981 0.47218 1.4527 2.1395
1.5046 0.47219 1.446 2.1395
1.5075 0.47109 1.4359 2.1346
1.4962 0.46557 1.4124 2.1095
1.4933 0.46271 1.397 2.0966
1.4945 0.46117 1.3857 2.0896
1.4921 0.45852 1.3711 2.0776
1.4953 0.45764 1.3618 2.0736
1.4985 0.45677 1.3525 2.0697
1.4885 0.45191 1.3315 2.0476
1.4905 0.4507 1.3213 2.0422
1.4909 0.44906 1.3098 2.0347
1.4953 0.44861 1.3018 2.0327
1.4958 0.44704 1.2906 2.0256
nan nan nan -inf
nan nan nan -inf
nan nan nan -inf
nan nan nan -inf
nan nan nan -inf
nan nan nan -inf
nan nan nan -inf
nan nan nan -inf
nan nan nan -inf
nan nan nan -inf
nan nan nan -inf
nan nan nan -inf
-1.3039 0.40038 1.1435 1.7799
-1.293 0.39861 1.1442 1.772
-1.2979 0.40172 1.159 1.7858
-1.3014 0.40441 1.1726 1.7978
-1.2997 0.40554 1.1817 1.8028
-1.2972 0.40643 1.1901 1.8068
-1.2919 0.40642 1.1959 1.8067
-1.2951 0.40913 1.2096 1.8187
-1.2999 0.41238 1.2251 1.8332
-1.299 0.41385 1.2353 1.8397
-1.2969 0.41496 1.2444 1.8447
-1.2997 0.41765 1.2583 1.8566
-1.2944 0.41777 1.2645 1.8572
-1.2939 0.41945 1.2754 1.8646
-1.2941 0.42135 1.287 1.8731
-1.2942 0.42327 1.2986 1.8816
-1.2904 0.42394 1.3065 1.8846
-1.2879 0.42507 1.3157 1.8896
-1.2939 0.42899 1.3337 1.9071
-1.2916 0.43022 1.3433 1.9125
-1.2909 0.43202 1.3547 1.9205
-1.2915 0.43427 1.3676 1.9305
-1.2904 0.43596 1.3787 1.938
-1.2865 0.43673 1.3869 1.9415
-1.2836 0.43786 1.3963 1.9465
-1.2878 0.44145 1.4135 1.9624
-1.2918 0.44504 1.4308 1.9784
-1.2913 0.44707 1.4431 1.9874
-1.2916 0.44942 1.4565 1.9979
-1.2895 0.451 1.4674 2.0049
-1.2935 0.4547 1.4853 2.0213
-1.2894 0.45561 1.494 2.0254
-1.2909 0.45852 1.5093 2.0383
-1.2898 0.46055 1.5218 2.0473
-1.2817 0.46009 1.526 2.0453
-1.2767 0.46076 1.534 2.0483
-1.2928 0.46909 1.5675 2.0853
-1.2863 0.4693 1.574 2.0863
-1.2805 0.46974 1.5813 2.0882
-1.2862 0.47447 1.6029 2.1092
-1.2869 0.4774 1.6186 2.1222
-1.2838 0.47898 1.6297 2.1292
-1.2896 0.4839 1.6523 2.1511
-1.2858 0.48525 1.6627 2.1571
-1.2861 0.48818 1.6785 2.1701
-1.2791 0.4884 1.685 2.1712
-1.2763 0.49021 1.6969 2.1792
-1.2878 0.4976 1.7283 2.212
-1.2864 0.50008 1.7427 2.2231
-1.2786 0.50008 1.7485 2.2231
-1.2805 0.50391 1.7676 2.2401
-1.2737 0.50436 1.7749 2.2421
-1.2753 0.50817 1.794 2.259
-1.2773 0.51221 1.814 2.277
-1.2764 0.51513 1.8301 2.29
-1.2854 0.52211 1.8607 2.321
-1.2815 0.52391 1.8729 2.329
-1.2736 0.52414 1.8794 2.33
-1.2763 0.52874 1.9016 2.3505
-1.2777 0.53289 1.9223 2.3689
-1.2728 0.53446 1.9337 2.3759
-1.2738 0.53851 1.9541 2.3939
-1.2729 0.54189 1.972 2.4089
-1.2678 0.54347 1.9835 2.4159
-1.2726 0.54942 2.0109 2.4424
-1.2685 0.55154 2.0244 2.4518
-1.2605 0.55199 2.0317 2.4538
-1.2626 0.55694 2.0556 2.4758
-1.261 0.56032 2.0737 2.4908
-1.2517 0.56032 2.0794 2.4909
-1.2423 0.56032 2.085 2.4909
-1.1176 0.50788 1.8948 2.2577
-1.0899 0.49911 1.867 2.2187
-1.0494 0.48426 1.8162 2.1527
-0.94017 0.43725 1.6441 1.9438
-0.91265 0.4278 1.6127 1.9018
-0.90542 0.42781 1.6168 1.9018
-0.89818 0.42781 1.6208 1.9018
-0.89791 0.43117 1.6376 1.9167
-0.90866 0.43993 1.6749 1.9557
-0.92465 0.4514 1.7228 2.0067
-1.0097 0.49707 1.9016 2.2097
-1.1616 0.5767 2.2115 2.5637
-1.1516 0.5767 2.2167 2.5637
-1.1417 0.57671 2.2218 2.5637
-1.1154 0.56838 2.1948 2.5267
-1.1484 0.5904 2.2849 2.6246
-1.1382 0.5904 2.2901 2.6246
-1.118 0.58523 2.275 2.6016
-1.1057 0.5841 2.2756 2.5966
-1.0807 0.57623 2.2498 2.5616
-1.0773 0.57983 2.2687 2.5776
-1.0605 0.57623 2.2594 2.5616
-1.0488 0.57534 2.2606 2.5576
-0.96798 0.5362 2.1112 2.3836
-0.95403 0.53369 2.1056 2.3725
-0.93902 0.53054 2.0974 2.3585
-0.92213 0.52627 2.0847 2.3395
-0.90928 0.52424 2.0808 2.3305
-0.89918 0.5238 2.083 2.3285
-0.88984 0.5238 2.087 2.3285
-0.88049 0.5238 2.091 2.3285
-0.87187 0.52425 2.0967 2.3305
-0.86173 0.5238 2.0988 2.3285
-0.85343 0.52448 2.1054 2.3315
-0.84254 0.52358 2.1056 2.3275
-0.83311 0.52358 2.1093 2.3275
-0.84731 0.53861 2.1737 2.3944
-0.83757 0.53862 2.1775 2.3944
-0.82677 0.53794 2.1785 2.3914
-0.81803 0.53862 2.1849 2.3944
-0.80959 0.53952 2.1922 2.3984
-0.81544 0.55009 2.2388 2.4454
-0.83209 0.56832 2.3167 2.5264
-0.82171 0.56832 2.3205 2.5264
-0.81291 0.56944 2.3287 2.5314
-0.80819 0.57349 2.3489 2.5494
-0.7986 0.57417 2.3553 2.5524
-0.79299 0.57777 2.3736 2.5684
-0.78235 0.57777 2.3772 2.5684
-0.7717 0.57777 2.3806 2.5684
-0.78794 0.5982 2.4684 2.6593
-0.78039 0.6009 2.483 2.6713
-0.77819 0.60788 2.5154 2.7023
-0.76692 0.60788 2.5188 2.7023
-0.76122 0.61238 2.5409 2.7223
-0.75287 0.61485 2.5546 2.7333
-0.74278 0.61598 2.5626 2.7383
-0.74465 0.62723 2.6128 2.7883
-0.73426 0.62835 2.6208 2.7933
-0.72251 0.62835 2.624 2.7933
-0.70949 0.62723 2.6226 2.7883
-0.68622 0.61688 2.5824 2.7423
-0.66112 0.60451 2.5336 2.6873
-0.64566 0.60069 2.5205 2.6703
-0.61014 0.57774 2.427 2.5683
-0.59926 0.57774 2.4297 2.5683
-0.58838 0.57774 2.4323 2.5683
-0.57748 0.57774 2.4349 2.5683
-0.71786 0.73202 3.0884 3.2541
-0.7196 0.74822 3.16 3.3261
-0.70926 0.75227 3.1803 3.3441
