# .PCD v.6 - Point Cloud Data file format
FIELDS x y z range
SIZE 4 4 4 4
TYPE F F F F
COUNT 1 1 1 1
WIDTH 1573
HEIGHT 1
POINTS 1573
DATA ascii
nan nan nan -inf
nan nan nan -inf
nan nan nan -inf
nan nan nan -inf
-3.8312 -1.4355 3.2222 5.2078
-3.7996 -1.4291 3.2253 5.1848
-3.8113 -1.4391 3.265 5.2208
-3.7716 -1.4297 3.2609 5.1867
-3.8025 -1.447 3.3178 5.2498
-3.7137 -1.4189 3.2701 5.1476
-3.7491 -1.4382 3.3317 5.2177
-3.739 -1.4401 3.3532 5.2247
-3.733 -1.4437 3.3785 5.2377
-3.7062 -1.4393 3.385 5.2217
-3.7135 -1.4481 3.4227 5.2537
-3.6887 -1.4445 3.4309 5.2407
-3.6622 -1.4402 3.4374 5.2252
-3.6358 -1.436 3.4438 5.2097
-3.5916 -1.4247 3.433 5.1686
-3.5573 -1.4172 3.4312 5.1416
-3.5134 -1.4059 3.4199 5.1006
-3.4814 -1.3993 3.4196 5.0765
-3.4368 -1.3876 3.4066 5.034
-3.4033 -1.3803 3.4041 5.0075
-3.3648 -1.3709 3.3963 4.9735
-3.3261 -1.3614 3.3879 4.939
-3.2869 -1.3516 3.3785 4.9035
-3.2615 -1.3474 3.3829 4.8884
-3.2172 -1.3354 3.3675 4.8449
-3.1725 -1.3232 3.351 4.8004
-3.1493 -1.3199 3.3569 4.7884
-3.1075 -1.3087 3.3426 4.7479
-3.079 -1.3031 3.3422 4.7274
-3.0475 -1.2961 3.3384 4.7024
-3.0084 -1.2859 3.3258 4.6653
-2.9992 -1.2884 3.3459 4.6744
-2.9654 -1.2804 3.3386 4.6454
-2.9305 -1.2719 3.3296 4.6143
-2.897 -1.2639 3.3219 4.5853
-2.9033 -1.2733 3.3597 4.6193
-2.8867 -1.2727 3.3714 4.6173
-2.8596 -1.2674 3.3705 4.5982
-2.8318 -1.2619 3.3687 4.5782
-2.8399 -1.2724 3.4096 4.6163
-2.822 -1.2713 3.4195 4.6122
-2.8046 -1.2705 3.43 4.6092
-2.775 -1.2641 3.4255 4.5861
-2.7799 -1.2735 3.4636 4.6202
-2.76 -1.2716 3.4709 4.6132
-2.7364 -1.268 3.4735 4.6001
-2.7182 -1.2669 3.4828 4.5961
-2.7371 -1.2831 3.5401 4.6552
-2.7058 -1.276 3.5326 4.6291
-2.6729 -1.268 3.5226 4.6001
-2.6545 -1.2668 3.5316 4.596
-2.6736 -1.2837 3.5907 4.6571
-2.6475 -1.279 3.5896 4.6401
-2.6181 -1.2726 3.5837 4.617
-2.5973 -1.2704 3.5893 4.609
-2.5776 -1.2687 3.5963 4.603
-2.5874 -1.2817 3.6449 4.65
-2.5686 -1.2806 3.6534 4.646
-2.5421 -1.2756 3.6508 4.628
-2.5211 -1.2734 3.656 4.6199
-2.4926 -1.2673 3.6499 4.5979
-2.5083 -1.2839 3.709 4.658
-2.4818 -1.2789 3.7059 4.6399
-2.4565 -1.2745 3.7043 4.6239
-2.438 -1.2737 3.713 4.6209
-2.4211 -1.2737 3.724 4.6208
-2.3964 -1.2695 3.7228 4.6058
-2.4115 -1.2866 3.784 4.6679
-2.3805 -1.2792 3.7729 4.6409
-2.3607 -1.2778 3.7795 4.6358
-2.3415 -1.2767 3.7869 4.6318
-2.3168 -1.2725 3.7852 4.6168
-2.295 -1.2701 3.7882 4.6077
-2.3095 -1.2877 3.8515 4.6718
-2.2778 -1.2797 3.8379 4.6428
-2.2584 -1.2786 3.8449 4.6388
-2.237 -1.2764 3.8484 4.6307
-2.2195 -1.2764 3.8585 4.6307
-2.1958 -1.2728 3.8577 4.6177
-2.209 -1.2907 3.9221 4.6828
-2.186 -1.2877 3.9228 4.6717
-2.1565 -1.2808 3.9116 4.6467
-2.1378 -1.2802 3.9197 4.6447
-2.1154 -1.2775 3.9208 4.6346
-2.094 -1.2753 3.9236 4.6266
-2.0982 -1.2888 3.9748 4.6757
-2.0801 -1.2888 3.9843 4.6757
-2.0553 -1.2847 3.9808 4.6607
-2.0333 -1.2822 3.9824 4.6516
-2.0139 -1.2813 3.989 4.6486
-1.9945 -1.2805 3.9955 4.6456
-1.9742 -1.2791 4.0001 4.6405
-2.238 -1.4635 4.5871 5.3096
-2.2222 -1.4668 4.6076 5.3216
-2.2041 -1.4688 4.6237 5.3286
-2.1847 -1.4699 4.6371 5.3326
-2.1637 -1.4698 4.6469 5.3325
-2.1405 -1.4685 4.6523 5.3275
-2.1039 -1.4577 4.6278 5.2885
-2.0269 -1.4186 4.5128 5.1465
-1.7109 -1.2097 3.856 4.3886
-1.6934 -1.2097 3.8637 4.3886
-1.6308 -1.1771 3.7673 4.2705
-1.5815 -1.1537 3.6995 4.1855
-1.5195 -1.1203 3.5995 4.0645
-1.4817 -1.1043 3.5548 4.0065
-1.4329 -1.0798 3.4824 3.9174
-1.3969 -1.0643 3.439 3.8614
-1.3551 -1.0442 3.3801 3.7884
-1.3044 -1.0167 3.297 3.6885
-1.2748 -1.0051 3.2652 3.6465
-1.2385 -0.98801 3.2153 3.5845
-1.1976 -0.96678 3.1517 3.5074
-1.1546 -0.94335 3.0806 3.4224
-1.1223 -0.92818 3.0362 3.3674
-1.0966 -0.91825 3.0087 3.3314
-1.082 -0.91742 3.0109 3.3284
-1.0638 -0.91355 3.0031 3.3143
-1.0463 -0.91024 2.997 3.3023
-1.0265 -0.90476 2.9836 3.2824
-1.0129 -0.90476 2.9883 3.2824
-0.99845 -0.90393 2.9901 3.2794
-0.98486 -0.90392 2.9946 3.2794
-0.96711 -0.90006 2.9862 3.2654
-0.95354 -0.90005 2.9905 3.2653
-0.93908 -0.89922 2.992 3.2623
-0.92095 -0.8948 2.9816 3.2463
-0.90628 -0.8937 2.982 3.2423
-0.89053 -0.89149 2.9787 3.2343
-0.8751 -0.88955 2.9762 3.2273
-0.86077 -0.88872 2.9774 3.2242
-0.84672 -0.88816 2.9794 3.2222
-0.82853 -0.8832 2.9665 3.2042
-0.81407 -0.88214 2.9667 3.2004
-0.80059 -0.88213 2.9704 3.2003
-0.78316 -0.87772 2.9591 3.1843
-0.76875 -0.87661 2.9589 3.1803
-0.75365 -0.87468 2.9558 3.1733
-0.73882 -0.87302 2.9536 3.1673
-0.72517 -0.87274 2.9559 3.1663
-0.70972 -0.87025 2.9508 3.1572
-0.69521 -0.86887 2.9493 3.1522
-0.67814 -0.86418 2.9365 3.1352
-0.66438 -0.86363 2.9376 3.1332
-0.65062 -0.86307 2.9387 3.1312
-0.63645 -0.86196 2.9379 3.1272
-0.62291 -0.86169 2.9398 3.1262
-0.60858 -0.8603 2.9379 3.1211
-0.59352 -0.85782 2.9321 3.1121
-0.57763 -0.854 2.9217 3.0983
-0.56399 -0.85345 2.9224 3.0963
-0.55036 -0.85289 2.923 3.0943
-0.53709 -0.85289 2.9255 3.0942
-0.51974 -0.84627 2.9052 3.0702
-0.50654 -0.84627 2.9075 3.0702
-0.49302 -0.84572 2.9079 3.0682
-0.4795 -0.84516 2.9082 3.0662
-0.46629 -0.84516 2.9103 3.0662
-0.45307 -0.84516 2.9124 3.0662
-0.43669 -0.83909 2.8935 3.0442
-0.42355 -0.83909 2.8954 3.0442
-0.41027 -0.83881 2.8964 3.0432
-0.39712 -0.83881 2.8982 3.0431
-0.38396 -0.8388 2.8999 3.0431
-0.36969 -0.83632 2.8931 3.0341
-0.35585 -0.83466 2.889 3.0281
-0.34217 -0.83328 2.8858 3.0231
-0.32874 -0.83246 2.8844 3.0201
-0.31459 -0.8297 2.8763 3.0101
-0.30173 -0.83025 2.8796 3.0121
-0.28847 -0.82969 2.8791 3.0101
-0.27512 -0.82887 2.8775 3.0071
-0.26197 -0.82859 2.8777 3.0061
-0.24849 -0.82721 2.8741 3.0011
-0.23544 -0.82721 2.8752 3.0011
-0.22217 -0.82638 2.8733 2.9981
-0.20912 -0.82638 2.8743 2.9981
-0.19568 -0.82472 2.8695 2.9921
-0.18259 -0.82445 2.8694 2.9911
-0.16871 -0.82031 2.8558 2.976
-0.15559 -0.81948 2.8536 2.973
-0.14264 -0.81948 2.8543 2.973
-0.12959 -0.81893 2.853 2.971
-0.11652 -0.8181 2.8507 2.968
-0.10358 -0.8181 2.8512 2.968
-0.090582 -0.8176 2.8499 2.9662
-0.077432 -0.81534 2.8424 2.958
-0.06438 -0.81346 2.8361 2.9512
-0.051506 -0.81346 2.8364 2.9512
-0.03863 -0.81346 2.8366 2.9512
-0.025754 -0.81346 2.8368 2.9512
-0.012878 -0.81346 2.8368 2.9512
0 -0.81318 2.8359 2.9502
0.012855 -0.81208 2.832 2.9462
0.025675 -0.81098 2.8281 2.9422
0.038512 -0.81098 2.828 2.9422
0.051348 -0.81098 2.8278 2.9422
0.064157 -0.81066 2.8264 2.941
0.076986 -0.81066 2.826 2.941
0.089813 -0.81066 2.8257 2.941
0.10236 -0.8085 2.8177 2.9332
0.115 -0.8074 2.8134 2.9292
0.12811 -0.80956 2.8204 2.937
0.14091 -0.80956 2.8197 2.937
0.15371 -0.80956 2.8191 2.937
0.16616 -0.80791 2.8126 2.9311
0.17832 -0.80515 2.8022 2.9211
0.19058 -0.80322 2.7947 2.9141
0.20326 -0.80322 2.7938 2.9141
0.21594 -0.80323 2.7928 2.9141
0.22862 -0.80323 2.7918 2.9141
0.24129 -0.80323 2.7908 2.9141
0.25404 -0.8035 2.7906 2.9151
0.2668 -0.80378 2.7904 2.9161
0.27946 -0.80378 2.7892 2.9161
0.29212 -0.80379 2.7879 2.9161
0.3054 -0.80544 2.7923 2.9221
0.31807 -0.80544 2.7908 2.9221
0.33073 -0.80544 2.7894 2.9221
0.34269 -0.80379 2.7821 2.9161
0.35519 -0.80352 2.7796 2.9151
0.36781 -0.80352 2.778 2.9151
0.38041 -0.80352 2.7763 2.9151
0.39301 -0.80353 2.7745 2.9152
0.40505 -0.80243 2.7689 2.9112
0.41761 -0.80243 2.7671 2.9112
0.42928 -0.80078 2.7595 2.9052
0.44181 -0.80078 2.7575 2.9052
0.45432 -0.80078 2.7555 2.9052
0.46907 -0.80464 2.7666 2.9192
0.48179 -0.80492 2.7654 2.9202
0.49434 -0.80493 2.7632 2.9202
0.50688 -0.80493 2.761 2.9202
0.51835 -0.80328 2.753 2.9143
0.5299 -0.80186 2.7457 2.9091
0.54292 -0.80269 2.7462 2.9121
0.55538 -0.80269 2.7437 2.9121
0.56783 -0.8027 2.7411 2.9121
0.58027 -0.8027 2.7385 2.9122
0.5927 -0.8027 2.7359 2.9122
0.60553 -0.80326 2.7351 2.9142
0.61794 -0.80326 2.7323 2.9142
0.63034 -0.80327 2.7295 2.9142
0.64361 -0.80437 2.7303 2.9182
0.65645 -0.80493 2.7293 2.9202
0.66929 -0.80548 2.7282 2.9223
0.68167 -0.80549 2.7251 2.9223
0.69403 -0.80549 2.722 2.9223
0.70639 -0.8055 2.7188 2.9223
0.71872 -0.8055 2.7156 2.9223
0.7323 -0.80688 2.717 2.9273
0.74463 -0.80689 2.7136 2.9273
0.75669 -0.80662 2.7093 2.9264
0.76898 -0.80662 2.7059 2.9264
0.78388 -0.80934 2.7114 2.9362
0.79619 -0.80934 2.7079 2.9362
0.80737 -0.80824 2.7006 2.9323
0.81963 -0.80825 2.6969 2.9323
0.83187 -0.80825 2.6932 2.9323
0.84409 -0.80826 2.6894 2.9323
0.85834 -0.81019 2.6919 2.9393
0.87055 -0.8102 2.688 2.9394
0.88275 -0.8102 2.6841 2.9394
0.89524 -0.81049 2.681 2.9404
0.90833 -0.81132 2.6796 2.9434
0.9208 -0.8116 2.6764 2.9444
0.93453 -0.81298 2.6768 2.9495
0.94727 -0.8135 2.6742 2.9513
0.95941 -0.8135 2.6699 2.9513
0.97449 -0.81599 2.6736 2.9604
0.98995 -0.81875 2.6782 2.9704
1.0021 -0.81876 2.6737 2.9704
1.0142 -0.81876 2.6692 2.9704
1.0139 -0.80885 2.6323 2.9345
1.0024 -0.79039 2.5677 2.8675
0.99393 -0.77468 2.5122 2.8105
0.98351 -0.75787 2.4532 2.7495
0.97584 -0.74355 2.4024 2.6976
0.96437 -0.7267 2.3436 2.6364
0.95097 -0.70879 2.2816 2.5715
0.93366 -0.6884 2.2117 2.4975
0.84962 -0.61977 1.9874 2.2485
0.79067 -0.57072 1.8265 2.0705
0.77465 -0.55336 1.7675 2.0076
0.76162 -0.53848 1.7165 1.9536
0.75682 -0.52967 1.685 1.9216
0.76447 -0.52968 1.6816 1.9216
0.7721 -0.52968 1.6781 1.9217
0.77479 -0.52634 1.664 1.9095
0.79054 -0.53186 1.6779 1.9296
0.79816 -0.53187 1.6743 1.9296
0.80577 -0.53188 1.6707 1.9296
0.81336 -0.53189 1.6671 1.9297
0.82093 -0.53189 1.6634 1.9297
0.82847 -0.53189 1.6596 1.9297
0.83644 -0.53218 1.6568 1.9307
0.84396 -0.53219 1.653 1.9307
0.84215 -0.52637 1.6311 1.9096
0.84867 -0.52582 1.6256 1.9077
0.85022 -0.52225 1.6107 1.8947
0.85754 -0.52226 1.6068 1.8947
0.86392 -0.52172 1.6013 1.8928
0.8712 -0.52173 1.5973 1.8928
0.87706 -0.52091 1.5909 1.8898
0.88469 -0.52115 1.5876 1.8907
0.89049 -0.52034 1.5811 1.8878
0.89767 -0.52034 1.5771 1.8878
0.90627 -0.52118 1.5755 1.8908
0.9173 -0.5234 1.5781 1.8989
0.92447 -0.5234 1.5739 1.8989
0.94088 -0.52861 1.5853 1.9178
0.94857 -0.5289 1.5819 1.9188
0.96523 -0.53415 1.5932 1.9379
0.97347 -0.53471 1.5905 1.9399
0.99283 -0.54133 1.6057 1.9639
1.4843 -0.80343 2.3764 2.9148
1.4951 -0.80344 2.3697 2.9149
1.5059 -0.80345 2.3629 2.9149
1.0021 -0.53086 1.5567 1.9259
0.9866 -0.51902 1.5175 1.883
0.9935 -0.51903 1.5131 1.883
1.0051 -0.52148 1.5157 1.8919
1.012 -0.52149 1.5111 1.892
1.0232 -0.52371 1.5129 1.9
1.0311 -0.52427 1.5099 1.902
1.038 -0.52428 1.5052 1.9021
1.0491 -0.52646 1.5067 1.91
1.056 -0.52647 1.502 1.91
1.0717 -0.53089 1.5097 1.9261
1.0803 -0.53173 1.5072 1.9291
1.0871 -0.53174 1.5023 1.9291
1.0978 -0.53365 1.5027 1.9361
1.1047 -0.53366 1.4978 1.9361
1.1172 -0.53643 1.5005 1.9461
1.1241 -0.53644 1.4954 1.9462
1.1309 -0.53645 1.4904 1.9462
1.1376 -0.53645 1.4852 1.9462
1.1537 -0.54084 1.4921 1.9621
1.1629 -0.54195 1.4899 1.9662
1.1762 -0.545 1.493 1.9772
1.183 -0.54501 1.4877 1.9773
1.1957 -0.54774 1.4897 1.9872
1.2024 -0.54775 1.4843 1.9872
1.2104 -0.54832 1.4804 1.9893
1.2227 -0.55081 1.4815 1.9983
1.2299 -0.55107 1.4767 1.9992
1.2342 -0.54998 1.4682 1.9953
1.2179 -0.53979 1.4355 1.9583
0.67853 -0.29915 0.79245 1.0853
0.70294 -0.30828 0.81345 1.1184
0.62073 -0.27081 0.71176 0.98247
0.6043 -0.26228 0.68661 0.95153
0.59532 -0.25705 0.67024 0.93258
0.59122 -0.25399 0.65957 0.92146
0.59295 -0.25345 0.65549 0.91951
0.59012 -0.25098 0.64644 0.91056
0.58917 -0.24934 0.63955 0.90461
0.58781 -0.24755 0.63228 0.8981
0.58574 -0.24548 0.62435 0.89059
0.58463 -0.24384 0.61753 0.88465
0.58378 -0.24233 0.61105 0.87914
0.57954 -0.23943 0.60112 0.86864
0.57224 -0.23531 0.58819 0.8537
0.57592 -0.23572 0.58661 0.85519
0.57823 -0.23559 0.58365 0.85469
0.57208 -0.23202 0.57222 0.84175
0.56993 -0.2301 0.56492 0.8348
0.57759 -0.23215 0.56734 0.84225
0.58257 -0.23312 0.56706 0.84575
0.58172 -0.23176 0.56111 0.8408
0.58113 -0.23052 0.55547 0.8363
0.58121 -0.22955 0.55052 0.83281
0.58935 -0.23177 0.55317 0.84086
0.59291 -0.23219 0.55148 0.84236
0.59647 -0.2326 0.54976 0.84387
0.59971 -0.23289 0.54773 0.84493
0.60326 -0.23331 0.54597 0.84643
0.60896 -0.23455 0.54612 0.85093
0.61502 -0.23593 0.54654 0.85594
0.62255 -0.23786 0.5482 0.86294
0.62508 -0.23787 0.5454 0.863
0.63046 -0.23898 0.54508 0.867
0.63512 -0.23981 0.54409 0.87001
0.63546 -0.23901 0.5394 0.86712
0.64114 -0.24022 0.53924 0.87152
0.6447 -0.24064 0.53725 0.87303
0.64792 -0.24093 0.53497 0.87409
0.6563 -0.24314 0.5369 0.8821
0.65874 -0.24314 0.53392 0.88211
0.66641 -0.24508 0.53514 0.88913
0.66948 -0.24531 0.53263 0.88998
nan nan nan -inf
nan nan nan -inf
nan nan nan -inf
nan nan nan -inf
nan nan nan -inf
nan nan nan -inf
nan nan nan -inf
-3.8715 -1.428 3.2633 5.2609
-3.8927 -1.4413 3.3114 5.31
-3.8703 -1.4386 3.3227 5.2999
-3.9003 -1.4555 3.3794 5.362
-3.861 -1.4465 3.3761 5.329
-3.8269 -1.4394 3.377 5.3029
-3.7863 -1.4299 3.3718 5.2678
-3.8075 -1.4438 3.4218 5.3189
-3.7706 -1.4356 3.4196 5.2888
-3.7379 -1.4291 3.421 5.2648
-3.7387 -1.4353 3.453 5.2878
-3.7138 -1.4318 3.4614 5.2748
-3.668 -1.4201 3.4498 5.2318
-3.6369 -1.4141 3.4518 5.2098
-3.5844 -1.3998 3.433 5.1568
-3.5501 -1.3924 3.4311 5.1298
-3.511 -1.3832 3.4243 5.0957
-3.4718 -1.3738 3.4169 5.0612
-3.4341 -1.365 3.4105 5.0287
-3.3927 -1.3547 3.4002 4.9907
-3.3539 -1.3453 3.3919 4.9562
-3.3227 -1.3389 3.3909 4.9327
-3.2838 -1.3294 3.3817 4.8976
-3.2454 -1.32 3.3727 4.8631
-3.2045 -1.3096 3.3605 4.8246
-3.1707 -1.302 3.3554 4.7966
-3.1268 -1.2902 3.3392 4.7531
-3.0891 -1.2808 3.329 4.7186
-3.0635 -1.2765 3.3316 4.7025
-3.0334 -1.2702 3.329 4.6795
-3.0403 -1.2795 3.3671 4.7136
-3.0166 -1.2759 3.3715 4.7005
-2.9834 -1.2683 3.365 4.6725
-2.9509 -1.261 3.3589 4.6454
-2.928 -1.2577 3.3635 4.6334
-2.9461 -1.2721 3.4154 4.6865
-2.9112 -1.2637 3.406 4.6554
-2.8901 -1.2612 3.4125 4.6464
-2.9074 -1.2756 3.4647 4.6994
-2.8911 -1.2753 3.4771 4.6984
-2.8642 -1.2704 3.4768 4.6803
-2.8454 -1.2691 3.4859 4.6753
-2.852 -1.2791 3.5266 4.7124
-2.8203 -1.2721 3.5199 4.6863
-2.8019 -1.271 3.5296 4.6823
-2.7811 -1.2688 3.5362 4.6742
-2.7585 -1.2658 3.5404 4.6632
-2.7771 -1.2818 3.5978 4.7223
-2.745 -1.2745 3.5897 4.6953
-2.7217 -1.2712 3.5929 4.6832
-2.7036 -1.2704 3.6029 4.6802
-2.7108 -1.2815 3.6468 4.7213
-2.684 -1.2766 3.6451 4.7032
-2.6663 -1.2761 3.6556 4.7012
-2.6423 -1.2725 3.6575 4.6881
-2.6134 -1.2666 3.6522 4.6661
-2.6269 -1.2812 3.7065 4.7202
-2.5995 -1.2761 3.7034 4.7011
-2.5788 -1.2742 3.7095 4.6941
-2.5522 -1.2693 3.7069 4.6761
-2.5331 -1.2682 3.7152 4.672
-2.5497 -1.285 3.7762 4.7341
-2.5325 -1.285 3.7877 4.7341
-2.502 -1.2782 3.779 4.709
-2.477 -1.2741 3.7782 4.694
-2.4514 -1.2698 3.7765 4.678
-2.4697 -1.2883 3.8427 4.7461
-2.4434 -1.2837 3.84 4.729
-2.4178 -1.2793 3.838 4.713
-2.3993 -1.2787 3.8472 4.711
-2.3783 -1.2768 3.8523 4.7039
-2.3558 -1.2741 3.8548 4.6939
-2.3495 -1.2802 3.884 4.7164
-2.3376 -1.2834 3.9042 4.728
-2.3135 -1.2798 3.9039 4.7149
-2.2913 -1.2774 3.9069 4.7059
-2.2731 -1.2771 3.9164 4.7049
-2.2486 -1.2733 3.9149 4.6908
-1.6987 -0.96957 2.9888 3.572
-1.6884 -0.97146 3.0024 3.5789
-2.1647 -1.2557 3.8905 4.6259
-2.1471 -1.2556 3.9003 4.6258
-2.1537 -1.27 3.9547 4.6788
-2.1358 -1.27 3.9644 4.6788
-1.6199 -0.97146 3.0398 3.5789
-1.6191 -0.97932 3.0718 3.6079
-1.8312 -1.1172 3.5126 4.1158
-2.3013 -1.4163 4.4636 5.2178
-2.281 -1.4163 4.4739 5.2178
-2.2836 -1.4307 4.5298 5.2707
-2.2403 -1.4163 4.4944 5.2177
-2.259 -1.4413 4.5839 5.3097
-2.2382 -1.4413 4.5941 5.3096
-2.2763 -1.4796 4.7265 5.4508
-2.2491 -1.4758 4.7246 5.4367
-2.2276 -1.4757 4.7347 5.4367
-2.1992 -1.4711 4.7299 5.4197
-2.1713 -1.4668 4.7258 5.4037
-2.1359 -1.4573 4.7049 5.3686
-2.0854 -1.4372 4.6496 5.2946
-1.7348 -1.2078 3.9154 4.4496
-1.6801 -1.1818 3.8387 4.3537
-1.6332 -1.1609 3.7782 4.2767
-1.5654 -1.1245 3.667 4.1427
-1.5159 -1.1006 3.5959 4.0546
-1.4866 -1.0911 3.5717 4.0196
-1.4327 -1.0631 3.4866 3.9166
-1.3963 -1.0476 3.4422 3.8596
-1.347 -1.0221 3.3645 3.7655
-1.2844 -0.98578 3.2508 3.6316
-1.2697 -0.98578 3.2565 3.6316
-1.2283 -0.96487 3.1931 3.5546
-1.1895 -0.94559 3.1347 3.4836
-1.1584 -0.93201 3.095 3.4336
-1.1184 -0.91083 3.0297 3.3556
-1.0934 -0.9016 3.004 3.3215
-1.0772 -0.89942 3.0017 3.3135
-1.0636 -0.89942 3.0065 3.3135
-1.0458 -0.89588 2.9995 3.3005
-1.0269 -0.89126 2.9887 3.2834
-1.0103 -0.88858 2.9843 3.2736
-0.99672 -0.88858 2.9889 3.2736
-0.98225 -0.88776 2.9906 3.2706
-0.96512 -0.8845 2.984 3.2585
-0.94954 -0.88259 2.9819 3.2515
-0.93312 -0.87987 2.977 3.2415
-0.91876 -0.87905 2.9784 3.2385
-0.90496 -0.87878 2.9816 3.2375
-0.89033 -0.87769 2.982 3.2334
-0.87571 -0.8766 2.9823 3.2294
-0.85737 -0.8717 2.9695 3.2114
-0.84206 -0.8698 2.9669 3.2044
-0.82859 -0.8698 2.9707 3.2044
-0.8141 -0.8687 2.9707 3.2004
-0.79715 -0.86494 2.9614 3.1865
-0.78126 -0.86223 2.9557 3.1765
-0.76664 -0.86086 2.9546 3.1715
-0.75299 -0.86059 2.957 3.1704
-0.73818 -0.85896 2.9548 3.1644
-0.72156 -0.85515 2.945 3.1504
-0.70708 -0.85379 2.9436 3.1454
-0.69284 -0.8527 2.943 3.1414
-0.67927 -0.85243 2.9452 3.1404
-0.66485 -0.85106 2.9435 3.1354
-0.65066 -0.84997 2.9427 3.1313
-0.63508 -0.84699 2.9353 3.1203
-0.61937 -0.84372 2.9268 3.1083
-0.6057 -0.84318 2.9277 3.1063
-0.59166 -0.84209 2.9266 3.1023
-0.57763 -0.841 2.9255 3.0983
-0.564 -0.84045 2.9262 3.0963
-0.55037 -0.83991 2.9268 3.0943
-0.53469 -0.83615 2.9161 3.0804
-0.51974 -0.83339 2.9089 3.0702
-0.50707 -0.83424 2.9142 3.0734
-0.49225 -0.83153 2.907 3.0634
-0.47906 -0.83152 2.9092 3.0634
-0.46465 -0.82935 2.9037 3.0554
-0.45148 -0.82935 2.9058 3.0554
-0.4383 -0.82934 2.9078 3.0553
-0.42511 -0.82934 2.9097 3.0553
-0.40976 -0.825 2.8964 3.0393
-0.39649 -0.82472 2.8972 3.0383
-0.38322 -0.82445 2.898 3.0373
-0.37008 -0.82445 2.8997 3.0373
-0.35599 -0.82227 2.8937 3.0293
-0.34253 -0.82146 2.8925 3.0263
-0.32887 -0.8201 2.8892 3.0213
-0.31514 -0.81847 2.8849 3.0153
-0.30155 -0.81711 2.8815 3.0103
-0.28839 -0.81683 2.8819 3.0093
-0.27532 -0.81683 2.8832 3.0093
-0.26207 -0.81629 2.8825 3.0072
-0.24842 -0.81439 2.8769 3.0002
-0.23467 -0.81194 2.8694 2.9912
-0.22151 -0.8114 2.8685 2.9892
-0.20843 -0.81113 2.8685 2.9882
-0.19543 -0.81112 2.8694 2.9882
-0.1823 -0.81058 2.8683 2.9862
-0.16929 -0.81058 2.8691 2.9862
-0.15612 -0.80976 2.867 2.9832
-0.14284 -0.80814 2.8619 2.9772
-0.12986 -0.80813 2.8625 2.9772
-0.1168 -0.80759 2.8611 2.9752
-0.10383 -0.80759 2.8616 2.9752
-0.090582 -0.80515 2.8534 2.9662
-0.077646 -0.80515 2.8538 2.9662
-0.06438 -0.80107 2.8397 2.9512
-0.051506 -0.80107 2.8399 2.9512
-0.03863 -0.80107 2.8401 2.9512
-0.025754 -0.80107 2.8403 2.9512
-0.012878 -0.80107 2.8404 2.9512
0 -0.8008 2.8394 2.9502
0.012855 -0.79972 2.8355 2.9462
0.025675 -0.79863 2.8316 2.9422
0.038512 -0.79863 2.8315 2.9422
0.051348 -0.79863 2.8313 2.9422
0.064183 -0.79863 2.831 2.9422
0.077017 -0.79863 2.8307 2.9422
0.089849 -0.79863 2.8303 2.9422
0.10237 -0.79619 2.8212 2.9332
0.115 -0.7951 2.8169 2.9292
0.12772 -0.79483 2.8154 2.9282
0.14049 -0.79484 2.8148 2.9282
0.15319 -0.79456 2.8131 2.9272
0.16577 -0.79375 2.8095 2.9242
0.17833 -0.79294 2.8059 2.9212
0.19098 -0.79267 2.8041 2.9202
0.20355 -0.79213 2.8013 2.9182
0.21625 -0.79213 2.8003 2.9182
0.22794 -0.78865 2.787 2.9054
0.24171 -0.7924 2.7992 2.9192
0.25414 -0.79159 2.7952 2.9162
0.26681 -0.79159 2.7941 2.9163
0.27948 -0.79159 2.7928 2.9163
0.29214 -0.79159 2.7915 2.9163
0.30437 -0.79051 2.7864 2.9123
0.31744 -0.7916 2.7888 2.9163
0.32974 -0.79078 2.7844 2.9133
0.34212 -0.79024 2.781 2.9113
0.35497 -0.79079 2.7814 2.9133
0.36796 -0.7916 2.7826 2.9163
0.38057 -0.79161 2.7809 2.9163
0.39317 -0.79161 2.7792 2.9163
0.40577 -0.79161 2.7774 2.9163
0.4175 -0.78998 2.7698 2.9103
0.42961 -0.78917 2.765 2.9073
0.44214 -0.78918 2.7631 2.9074
0.45513 -0.78999 2.7639 2.9104
0.46814 -0.79081 2.7646 2.9134
0.48067 -0.79081 2.7625 2.9134
0.49201 -0.78892 2.7537 2.9064
0.5038 -0.78784 2.7476 2.9024
0.51625 -0.78784 2.7453 2.9024
0.53085 -0.79105 2.7542 2.9143
0.54314 -0.79078 2.7508 2.9133
0.55561 -0.79079 2.7483 2.9133
0.56826 -0.79106 2.7467 2.9143
0.57951 -0.78944 2.7385 2.9083
0.59172 -0.78917 2.7349 2.9073
0.60433 -0.78944 2.7331 2.9083
0.61735 -0.79026 2.7332 2.9114
0.62974 -0.79026 2.7304 2.9114
0.64299 -0.79135 2.7313 2.9154
0.65537 -0.79136 2.7283 2.9154
0.66797 -0.79163 2.7263 2.9164
0.68009 -0.79137 2.7223 2.9154
0.69267 -0.79164 2.7201 2.9164
0.70669 -0.79355 2.7235 2.9235
0.71903 -0.79355 2.7203 2.9235
0.73136 -0.79355 2.717 2.9235
0.74367 -0.79356 2.7137 2.9235
0.75697 -0.79461 2.7139 2.9274
0.769 -0.79434 2.7095 2.9264
0.78128 -0.79434 2.706 2.9264
0.79355 -0.79435 2.7024 2.9264
0.80855 -0.79707 2.7081 2.9364
0.82082 -0.79707 2.7044 2.9365
0.83308 -0.79708 2.7006 2.9365
0.84532 -0.79708 2.6969 2.9365
0.85667 -0.79627 2.6903 2.9335
0.86886 -0.79628 2.6864 2.9335
0.88284 -0.79791 2.6879 2.9395
0.89502 -0.79792 2.6839 2.9396
0.90719 -0.79792 2.6798 2.9396
0.91933 -0.79793 2.6757 2.9396
0.93458 -0.8006 2.6805 2.9495
0.94737 -0.80115 2.678 2.9515
0.96113 -0.80252 2.6783 2.9565
0.97294 -0.80225 2.673 2.9555
0.98572 -0.8028 2.6704 2.9576
0.99783 -0.80281 2.6659 2.9576
1.0092 -0.80227 2.6596 2.9556
1.014 -0.79657 2.6361 2.9346
1.0057 -0.78084 2.5795 2.8766
0.99405 -0.76293 2.5159 2.8107
0.98357 -0.74633 2.4567 2.7495
0.9759 -0.73223 2.4059 2.6976
0.97034 -0.72002 2.3614 2.6526
0.96034 -0.70482 2.3072 2.5966
0.94164 -0.68366 2.2337 2.5186
0.86674 -0.62259 2.0303 2.2937
0.79193 -0.56288 1.832 2.0737
0.77554 -0.54552 1.772 2.0097
0.76096 -0.52978 1.7174 1.9517
0.76087 -0.52436 1.6964 1.9318
0.763 -0.52057 1.6807 1.9178
0.7662 -0.51759 1.6676 1.9068
0.77938 -0.52136 1.6763 1.9207
0.78698 -0.52136 1.6727 1.9207
0.79457 -0.52137 1.6692 1.9208
0.80214 -0.52138 1.6656 1.9208
0.8097 -0.52139 1.6619 1.9208
0.82149 -0.52411 1.6669 1.9308
0.82905 -0.52412 1.6632 1.9309
0.83652 -0.52407 1.6593 1.9307
0.84411 -0.52412 1.6556 1.9309
0.85155 -0.52409 1.6517 1.9308
0.84614 -0.51623 1.6231 1.9018
0.84992 -0.51406 1.6125 1.8938
0.85271 -0.51136 1.6001 1.8839
0.85997 -0.51137 1.5963 1.8839
0.86767 -0.51165 1.5932 1.8849
0.87443 -0.51138 1.5885 1.884
0.88345 -0.51244 1.5877 1.8879
0.89065 -0.51245 1.5838 1.8879
0.89784 -0.51246 1.5797 1.8879
0.91028 -0.51545 1.5848 1.899
0.91795 -0.51573 1.5816 1.9
0.92757 -0.5171 1.5816 1.905
0.93762 -0.5187 1.5822 1.9109
0.94925 -0.52115 1.5854 1.92
0.96143 -0.52388 1.5894 1.93
0.97567 -0.52769 1.5965 1.944
0.99403 -0.53367 1.6101 1.9661
1.4765 -0.78689 2.3675 2.899
1.4872 -0.7869 2.3608 2.899
1.4979 -0.78691 2.354 2.899
1.0132 -0.52852 1.5765 1.9471
0.99781 -0.51685 1.5372 1.9041
0.99371 -0.51116 1.5158 1.8832
1.0006 -0.51116 1.5112 1.8831
1.0079 -0.51142 1.5074 1.8841
1.0196 -0.51387 1.5101 1.8931
1.0297 -0.51551 1.5102 1.8992
1.0382 -0.51634 1.508 1.9022
1.0469 -0.51728 1.506 1.9057
1.0562 -0.51849 1.5047 1.9102
1.0653 -0.51959 1.5031 1.9142
1.08 -0.5234 1.5092 1.9282
1.0885 -0.52423 1.5067 1.9313
1.0984 -0.52571 1.506 1.9368
1.1061 -0.52611 1.5022 1.9382
1.1181 -0.52857 1.5041 1.9473
1.1295 -0.53075 1.5052 1.9553
1.1364 -0.53076 1.5001 1.9554
1.1513 -0.53454 1.5056 1.9693
1.1599 -0.53536 1.5027 1.9723
1.162 -0.53323 1.4914 1.9644
1.1735 -0.53538 1.4921 1.9724
1.1803 -0.53539 1.4868 1.9724
1.1924 -0.53783 1.4882 1.9814
1.1997 -0.53809 1.4835 1.9824
1.2065 -0.5381 1.4781 1.9824
1.2211 -0.54164 1.4823 1.9954
1.2288 -0.54205 1.4778 1.9969
1.2364 -0.54245 1.4734 1.9984
1.2263 -0.53513 1.4479 1.9715
0.86767 -0.37663 1.0151 1.3875
0.87226 -0.37663 1.0112 1.3875
0.62979 -0.27052 0.72345 0.99659
0.61087 -0.26103 0.69532 0.96165
0.59872 -0.25453 0.67529 0.9377
0.5915 -0.25018 0.66109 0.92169
0.58553 -0.24641 0.64848 0.9078
0.59746 -0.25018 0.65569 0.92167
0.58743 -0.24477 0.63884 0.90173
0.58316 -0.24179 0.62845 0.89078
0.5853 -0.2415 0.62505 0.88971
0.58485 -0.24016 0.61893 0.88476
0.58702 -0.2399 0.61561 0.88381
0.5818 -0.23664 0.60462 0.87181
0.58051 -0.23501 0.59783 0.8658
0.57651 -0.23231 0.58835 0.85586
0.57646 -0.23123 0.58299 0.85186
0.57706 -0.23041 0.57833 0.84886
0.57152 -0.22717 0.56761 0.83691
0.57413 -0.22719 0.56505 0.83696
0.57316 -0.2258 0.55901 0.83186
0.57573 -0.22581 0.55644 0.83191
0.57828 -0.22583 0.55386 0.83197
0.58463 -0.22732 0.55487 0.83747
0.58819 -0.22773 0.55321 0.83897
0.59073 -0.22775 0.55057 0.83902
0.59428 -0.22815 0.54887 0.84053
0.59712 -0.22829 0.5465 0.84103
0.59963 -0.22831 0.54382 0.84109
0.6128 -0.23236 0.55072 0.85604
0.61605 -0.23265 0.54861 0.8571
0.61817 -0.23252 0.5455 0.8566
0.62028 -0.23238 0.54238 0.85611
0.62932 -0.23484 0.54527 0.86517
0.63325 -0.23539 0.54367 0.86717
0.63791 -0.2362 0.54266 0.87018
0.64041 -0.23622 0.5398 0.87024
0.64499 -0.237 0.53868 0.87313
0.64747 -0.23702 0.53579 0.87319
0.65515 -0.23894 0.53716 0.88025
0.66128 -0.24028 0.53719 0.88521
0.669 -0.2422 0.53845 0.89227
nan nan nan -inf
nan nan nan -inf
nan nan nan -inf
nan nan nan -inf
nan nan nan -inf
nan nan nan -inf
nan nan nan -inf
nan nan nan -inf
-3.9701 -1.4413 3.3536 5.3931
-3.9468 -1.4383 3.3647 5.3821
-3.8788 -1.419 3.3372 5.31
-3.9373 -1.4461 3.4186 5.4111
-3.9022 -1.4388 3.4192 5.3841
-3.8722 -1.4335 3.4241 5.364
-3.8847 -1.4439 3.4666 5.4031
-3.8474 -1.4359 3.4648 5.373
-3.8181 -1.4308 3.4698 5.354
-3.7832 -1.4236 3.4695 5.327
-3.7392 -1.4129 3.4604 5.287
-3.7016 -1.4046 3.4569 5.256
-3.66 -1.3947 3.4492 5.2189
-3.6139 -1.3831 3.4368 5.1754
-3.5716 -1.3728 3.4275 5.1369
-3.538 -1.3658 3.4261 5.1109
-3.4945 -1.355 3.4148 5.0704
-3.4546 -1.3455 3.4066 5.0349
-3.4255 -1.3402 3.4086 5.0148
-3.3689 -1.324 3.3827 4.9543
-3.3275 -1.3137 3.3716 4.9158
-3.3047 -1.3107 3.379 4.9048
-3.2642 -1.3007 3.368 4.8673
-3.2333 -1.2944 3.3664 4.8438
-3.2 -1.2872 3.3621 4.8167
-3.1702 -1.2813 3.3611 4.7947
-3.1326 -1.2723 3.3515 4.7607
-3.1062 -1.2677 3.3536 4.7437
-3.0727 -1.2602 3.3477 4.7156
-3.0576 -1.2602 3.3616 4.7156
-3.0707 -1.272 3.407 4.7597
-3.0424 -1.2666 3.4064 4.7397
-3.0224 -1.2647 3.4151 4.7326
-3.0012 -1.2623 3.4222 4.7236
-3.0161 -1.2752 3.4707 4.7716
-2.9821 -1.2674 3.4631 4.7426
-2.9657 -1.2671 3.4758 4.7415
-2.943 -1.2642 3.4811 4.7305
-2.9551 -1.2762 3.5277 4.7756
-2.9311 -1.2727 3.5313 4.7625
-2.9004 -1.2663 3.5267 4.7385
-2.8746 -1.262 3.5278 4.7224
-2.8962 -1.2786 3.5873 4.7845
-2.8672 -1.273 3.5846 4.7635
-2.8498 -1.2724 3.596 4.7614
-2.818 -1.2655 3.5891 4.7354
-2.8378 -1.2818 3.6483 4.7965
-2.8212 -1.2818 3.6611 4.7964
-2.7865 -1.2735 3.65 4.7654
-2.7647 -1.2711 3.6556 4.7563
-2.7319 -1.2636 3.6465 4.7283
-2.7453 -1.2775 3.6991 4.7804
-2.7285 -1.2775 3.7115 4.7803
-2.7076 -1.2756 3.7183 4.7733
-2.6823 -1.2716 3.7188 4.7583
-2.6536 -1.266 3.7144 4.7372
-2.6736 -1.2836 3.7784 4.8033
-2.6393 -1.2753 3.7659 4.7723
-2.6145 -1.2716 3.7667 4.7582
-2.5925 -1.2692 3.7714 4.7492
-2.5699 -1.2665 3.7751 4.7392
-2.5862 -1.2831 3.8363 4.8013
-2.5565 -1.2769 3.8295 4.7782
-2.537 -1.2758 3.8378 4.7742
-2.5185 -1.2753 3.8476 4.7721
-2.4911 -1.2702 3.8436 4.7531
-2.5034 -1.2855 3.9011 4.8102
-2.4769 -1.2809 3.8985 4.7932
-2.4505 -1.2764 3.8958 4.7761
-2.4007 -1.2595 3.8552 4.713
-2.4126 -1.275 3.9137 4.7711
-2.3812 -1.2678 3.9024 4.7441
-1.7871 -0.95862 2.9588 3.5871
-1.7712 -0.95727 2.9627 3.5821
-1.7529 -0.95459 2.9624 3.5721
-1.7428 -0.95645 2.9761 3.579
-1.726 -0.95457 2.9781 3.572
-1.6972 -0.94606 2.9592 3.5401
-1.6856 -0.94712 2.9702 3.5441
-1.6722 -0.94711 2.9778 3.5441
-1.6591 -0.94737 2.9861 3.545
-1.6474 -0.94843 2.997 3.549
-1.638 -0.95082 3.012 3.558
-1.6302 -0.95429 3.0304 3.5709
-1.6075 -0.94897 3.0208 3.551
-1.5938 -0.94897 3.028 3.551
-1.5818 -0.95003 3.0386 3.555
-1.5663 -0.94895 3.0423 3.551
-1.5525 -0.94894 3.0493 3.5509
-1.5425 -0.95134 3.0641 3.5599
-1.5394 -0.95801 3.0925 3.5849
-2.3184 -1.4561 4.7111 5.4488
-1.5004 -0.95109 3.0839 3.559
-2.302 -1.473 4.7867 5.5119
-2.2803 -1.473 4.797 5.5119
-2.2565 -1.4716 4.8029 5.5069
-2.2295 -1.4682 4.8017 5.4938
-2.2077 -1.4682 4.8117 5.4938
-2.1696 -1.4572 4.7857 5.4528
-2.14 -1.4518 4.7778 5.4328
-1.7405 -1.1929 3.9335 4.4637
-1.6359 -1.1328 3.7428 4.2388
-1.6189 -1.1328 3.7502 4.2388
-1.5747 -1.1135 3.6936 4.1668
-1.5228 -1.0884 3.6172 4.0728
-1.4746 -1.0654 3.5475 3.9868
-1.4204 -1.0376 3.4614 3.8827
-1.3827 -1.0213 3.4133 3.8217
-1.3479 -1.0069 3.3712 3.7677
-1.3071 -0.98762 3.3127 3.6957
-1.2376 -0.94597 3.1786 3.5398
-1.2232 -0.94597 3.1842 3.5398
-1.1903 -0.93153 3.141 3.4858
-1.1542 -0.91415 3.0877 3.4207
-1.1202 -0.89811 3.0386 3.3607
-1.0846 -0.88047 2.9838 3.2947
-1.0711 -0.88046 2.9887 3.2947
-1.0576 -0.88046 2.9935 3.2947
-1.044 -0.88045 2.9982 3.2946
-1.0267 -0.87724 2.992 3.2826
-1.0103 -0.87483 2.9884 3.2736
-0.99676 -0.87482 2.9929 3.2736
-0.98229 -0.87402 2.9946 3.2706
-0.96373 -0.86951 2.9836 3.2537
-0.94816 -0.86764 2.9815 3.2467
-0.93407 -0.8671 2.9839 3.2447
-0.91997 -0.86656 2.9862 3.2426
-0.90225 -0.86254 2.9765 3.2276
-0.8882 -0.862 2.9787 3.2256
-0.87307 -0.8604 2.9771 3.2196
-0.85638 -0.85718 2.9699 3.2076
-0.84292 -0.85718 2.9737 3.2075
-0.82582 -0.85343 2.9645 3.1935
-0.81162 -0.85263 2.9654 3.1905
-0.79718 -0.85155 2.9653 3.1865
-0.78058 -0.84812 2.9569 3.1736
-0.76646 -0.84731 2.9576 3.1706
-0.75044 -0.84437 2.9508 3.1596
-0.73707 -0.84437 2.9541 3.1596
-0.72345 -0.84409 2.9565 3.1586
-0.70758 -0.84115 2.9494 3.1476
-0.69421 -0.84115 2.9526 3.1476
-0.67932 -0.83927 2.9491 3.1405
-0.66278 -0.83526 2.938 3.1255
-0.64926 -0.83499 2.94 3.1245
-0.63593 -0.83499 2.9429 3.1245
-0.6212 -0.83311 2.9392 3.1175
-0.60769 -0.83284 2.941 3.1165
-0.59036 -0.82723 2.9239 3.0955
-0.57432 -0.82321 2.9123 3.0804
-0.56112 -0.82321 2.9149 3.0804
-0.54792 -0.82321 2.9174 3.0804
-0.5347 -0.8232 2.9198 3.0804
-0.52147 -0.8232 2.9222 3.0804
-0.50529 -0.81843 2.9076 3.0626
-0.4918 -0.8179 2.9079 3.0605
-0.47862 -0.81789 2.9101 3.0605
-0.46465 -0.81651 2.9073 3.0554
-0.45151 -0.81655 2.9096 3.0555
-0.4379 -0.81575 2.9087 3.0525
-0.42486 -0.81601 2.9116 3.0535
-0.41154 -0.81574 2.9125 3.0525
-0.39821 -0.81547 2.9134 3.0515
-0.3806 -0.80612 2.8817 3.0165
-0.36754 -0.80612 2.8834 3.0165
-0.35448 -0.80611 2.8851 3.0165
-0.34153 -0.80638 2.8876 3.0175
-0.32845 -0.80638 2.8891 3.0174
-0.31536 -0.80638 2.8905 3.0174
-0.30107 -0.80317 2.8804 3.0054
-0.28735 -0.80129 2.875 2.9984
-0.27397 -0.80022 2.8725 2.9944
-0.26096 -0.80022 2.8737 2.9944
-0.24794 -0.80022 2.8748 2.9944
-0.23476 -0.79969 2.874 2.9924
-0.22175 -0.79968 2.875 2.9924
-0.20866 -0.79942 2.875 2.9914
-0.19551 -0.79888 2.874 2.9894
-0.18121 -0.79327 2.8547 2.9684
-0.16828 -0.79327 2.8555 2.9684
-0.15524 -0.79273 2.8543 2.9664
-0.14241 -0.79326 2.8569 2.9684
-0.12948 -0.79326 2.8575 2.9684
-0.11634 -0.79193 2.8532 2.9634
-0.10324 -0.79059 2.8489 2.9584
-0.090496 -0.79193 2.8542 2.9634
-0.077493 -0.79112 2.8516 2.9604
-0.064536 -0.79059 2.85 2.9584
-0.051543 -0.78925 2.8455 2.9534
-0.03858 -0.78765 2.8399 2.9474
-0.025695 -0.78685 2.8372 2.9444
-0.012848 -0.78685 2.8372 2.9444
0 -0.78498 2.8305 2.9374
0.012838 -0.78631 2.8353 2.9424
0.025633 -0.78498 2.8304 2.9374
0.038409 -0.78417 2.8274 2.9344
0.051211 -0.78417 2.8272 2.9344
0.064034 -0.78444 2.8279 2.9354
0.076759 -0.78364 2.8247 2.9324
0.089488 -0.78311 2.8224 2.9304
0.10227 -0.78311 2.8219 2.9304
0.11493 -0.78231 2.8186 2.9274
0.12747 -0.78097 2.8132 2.9224
0.14011 -0.78044 2.8107 2.9204
0.15284 -0.78044 2.81 2.9204
0.16567 -0.78097 2.8112 2.9224
0.17828 -0.78044 2.8085 2.9204
0.19099 -0.78044 2.8077 2.9204
0.20322 -0.77857 2.8001 2.9134
0.21582 -0.77831 2.7982 2.9124
0.22794 -0.77644 2.7904 2.9054
0.24057 -0.77644 2.7894 2.9054
0.2532 -0.77644 2.7883 2.9054
0.26582 -0.77644 2.7871 2.9054
0.27844 -0.77644 2.7859 2.9054
0.29155 -0.77778 2.7894 2.9104
0.30418 -0.77778 2.788 2.9104
0.3168 -0.77778 2.7866 2.9104
0.32874 -0.77618 2.7794 2.9045
0.34132 -0.77618 2.7779 2.9045
0.3539 -0.77618 2.7764 2.9045
0.36659 -0.77645 2.7757 2.9055
0.37916 -0.77646 2.774 2.9055
0.39172 -0.77646 2.7723 2.9055
0.40413 -0.77619 2.7695 2.9045
0.41652 -0.77593 2.7667 2.9035
0.42905 -0.77593 2.7648 2.9035
0.44141 -0.77567 2.7619 2.9025
0.45391 -0.77567 2.7599 2.9025
0.46641 -0.77567 2.7578 2.9025
0.47889 -0.77567 2.7557 2.9026
0.4932 -0.77857 2.7638 2.9134
0.5045 -0.7767 2.7549 2.9064
0.51625 -0.77564 2.7488 2.9024
0.5287 -0.77564 2.7464 2.9024
0.54132 -0.77591 2.745 2.9034
0.55432 -0.77672 2.7453 2.9065
0.56811 -0.77859 2.7494 2.9135
0.58055 -0.77859 2.7468 2.9135
0.59299 -0.7786 2.7442 2.9135
0.6052 -0.77833 2.7406 2.9125
0.61676 -0.77727 2.734 2.9085
0.62914 -0.77727 2.7312 2.9085
0.6415 -0.77728 2.7284 2.9086
0.65385 -0.77728 2.7254 2.9086
0.66619 -0.77728 2.7225 2.9086
0.67851 -0.77729 2.7194 2.9086
0.69011 -0.77649 2.7136 2.9056
0.70239 -0.77649 2.7104 2.9056
0.71466 -0.7765 2.7072 2.9056
0.73138 -0.78127 2.7206 2.9235
0.7437 -0.78127 2.7172 2.9235
0.756 -0.78128 2.7139 2.9235
0.76986 -0.78289 2.716 2.9295
0.78109 -0.78182 2.7088 2.9256
0.79443 -0.7829 2.7089 2.9296
0.80669 -0.7829 2.7053 2.9296
0.8181 -0.7821 2.6989 2.9266
0.83032 -0.78211 2.6952 2.9266
0.84511 -0.78452 2.6997 2.9357
0.85733 -0.78452 2.6959 2.9357
0.87161 -0.7864 2.6984 2.9427
0.88383 -0.7864 2.6944 2.9427
0.89506 -0.78557 2.6875 2.9396
0.90723 -0.78557 2.6835 2.9396
0.91937 -0.78558 2.6794 2.9396
0.9315 -0.78558 2.6752 2.9396
0.94779 -0.78906 2.6828 2.9527
0.96026 -0.78933 2.6794 2.9537
0.97239 -0.78934 2.675 2.9537
0.98483 -0.78961 2.6715 2.9547
0.99659 -0.78935 2.6661 2.9537
1.0059 -0.78722 2.6544 2.9458
1.0128 -0.78322 2.6364 2.9308
1.0093 -0.77147 2.5923 2.8868
0.99411 -0.75112 2.5194 2.8107
0.98548 -0.73616 2.4648 2.7547
0.97746 -0.722 2.413 2.7017
0.96863 -0.70758 2.3604 2.6477
0.96231 -0.69529 2.3151 2.6018
0.94101 -0.67258 2.2353 2.5168
0.88462 -0.62556 2.075 2.3408
0.79471 -0.55608 1.841 2.0808
0.7772 -0.53818 1.7782 2.0139
0.7603 -0.52109 1.7183 1.9499
0.75626 -0.51308 1.6885 1.9199
0.75834 -0.50934 1.6728 1.906
0.76626 -0.50958 1.6701 1.9068
0.77342 -0.50932 1.6657 1.9058
0.78096 -0.50932 1.6622 1.9059
0.78849 -0.50933 1.6587 1.9059
0.8006 -0.51228 1.6647 1.9169
0.81067 -0.51389 1.6663 1.923
0.81822 -0.5139 1.6626 1.923
0.82532 -0.51364 1.6581 1.922
0.8324 -0.51338 1.6535 1.921
0.83939 -0.51308 1.6487 1.9199
0.84685 -0.51308 1.6449 1.9199
0.84362 -0.50667 1.6206 1.896
0.84737 -0.50454 1.6099 1.888
0.85286 -0.50348 1.6027 1.884
0.86012 -0.50349 1.5989 1.8841
0.86737 -0.5035 1.595 1.8841
0.87366 -0.50297 1.5894 1.8821
0.88173 -0.50348 1.587 1.884
0.88751 -0.50268 1.5805 1.881
0.89467 -0.50269 1.5765 1.8811
0.90182 -0.5027 1.5724 1.8811
0.91861 -0.50805 1.585 1.9011
0.92579 -0.50806 1.5809 1.9012
0.93783 -0.51073 1.5849 1.9111
0.94449 -0.51045 1.5798 1.9101
0.95165 -0.51046 1.5756 1.9101
0.96632 -0.51448 1.5836 1.9252
0.99372 -0.52518 1.612 1.9652
1.4344 -0.75257 2.3036 2.8161
1.4449 -0.75258 2.2971 2.8161
1.4553 -0.75259 2.2905 2.8162
1.015 -0.52117 1.5816 1.9502
0.99278 -0.50621 1.5318 1.8942
0.99497 -0.50382 1.52 1.8853
1.0019 -0.50383 1.5155 1.8853
1.0076 -0.50327 1.5093 1.8832
1.0144 -0.50328 1.5048 1.8833
1.031 -0.5081 1.5145 1.9013
1.0379 -0.50811 1.5099 1.9013
1.0464 -0.50892 1.5076 1.9044
1.0521 -0.50837 1.5012 1.9023
1.0589 -0.50838 1.4964 1.9023
1.0763 -0.51346 1.5065 1.9214
1.0871 -0.51535 1.5071 1.9284
1.0979 -0.51723 1.5077 1.9355
1.1086 -0.51907 1.5081 1.9424
1.1178 -0.52015 1.5062 1.9464
1.1269 -0.52123 1.5042 1.9504
1.1349 -0.52178 1.5006 1.9525
1.1449 -0.52324 1.4997 1.958
1.1555 -0.52497 1.4994 1.9644
1.1623 -0.52498 1.4942 1.9645
1.1732 -0.52687 1.4943 1.9715
1.18 -0.52687 1.489 1.9715
1.1909 -0.52875 1.4889 1.9786
1.1994 -0.52953 1.4857 1.9815
1.2068 -0.52981 1.481 1.9825
1.2215 -0.53329 1.4852 1.9956
1.2282 -0.53331 1.4797 1.9956
1.2348 -0.53328 1.4741 1.9955
1.2366 -0.53116 1.4626 1.9876
0.97738 -0.4176 1.1455 1.5626
0.66264 -0.28163 0.76953 1.0538
0.64012 -0.27064 0.73661 1.0127
0.60218 -0.25328 0.68665 0.94777
0.59063 -0.24715 0.66736 0.92482
0.59239 -0.24663 0.66327 0.92287
0.58567 -0.2426 0.6498 0.9078
0.5886 -0.2426 0.64714 0.9078
0.59026 -0.24208 0.64308 0.90585
0.58796 -0.23995 0.63478 0.89789
0.58522 -0.23768 0.62612 0.88939
0.58573 -0.23674 0.62101 0.88588
0.58791 -0.23649 0.61768 0.88493
0.58606 -0.23463 0.61019 0.87798
0.58513 -0.23316 0.60372 0.87247
0.58616 -0.23249 0.59934 0.86997
0.57943 -0.22876 0.58711 0.85602
0.5797 -0.22783 0.58209 0.85252
0.57721 -0.22582 0.57436 0.84502
0.57504 -0.22396 0.56704 0.83807
0.57557 -0.22318 0.56245 0.83512
0.57873 -0.22342 0.56043 0.83602
0.5813 -0.22343 0.55784 0.83607
0.58316 -0.22318 0.55458 0.83513
0.58496 -0.22291 0.55127 0.83413
0.58957 -0.22371 0.55059 0.83713
0.59563 -0.22506 0.55122 0.84219
0.5967 -0.22453 0.54722 0.84019
0.60702 -0.22747 0.55164 0.85119
0.60951 -0.22747 0.54889 0.85119
0.61415 -0.22827 0.54805 0.8542
0.61667 -0.22829 0.54531 0.85426
0.62167 -0.22923 0.54473 0.85776
0.6245 -0.22936 0.54224 0.85827
0.62846 -0.22991 0.5407 0.86033
0.636 -0.23177 0.54219 0.86728
0.6407 -0.23259 0.54121 0.87034
0.64758 -0.23419 0.54202 0.87635
0.64702 -0.23311 0.53659 0.8723
0.65321 -0.23446 0.53675 0.87736
0.65975 -0.23594 0.53713 0.88287
0.66856 -0.23821 0.53929 0.89137
nan nan nan -inf
nan nan nan -inf
nan nan nan -inf
nan nan nan -inf
nan nan nan -inf
nan nan nan -inf
nan nan nan -inf
nan nan nan -inf
-3.9714 -1.4186 3.3618 5.3931
-4.0024 -1.4352 3.4193 5.4562
-3.9752 -1.4309 3.4272 5.4402
-3.9852 -1.4402 3.4674 5.4752
-3.9665 -1.4391 3.4828 5.4712
-3.937 -1.4341 3.4885 5.4522
-3.901 -1.4267 3.4883 5.4242
-3.858 -1.4167 3.4813 5.3862
-3.7994 -1.4009 3.4597 5.3262
-3.7759 -1.398 3.4697 5.3151
-3.7283 -1.3862 3.4572 5.2701
-3.6929 -1.3788 3.4556 5.2421
-3.6488 -1.3682 3.4454 5.2016
-3.6014 -1.3562 3.4316 5.1561
-3.5754 -1.3523 3.4378 5.141
-3.5234 -1.3384 3.4186 5.0885
-3.4883 -1.3309 3.4153 5.06
-3.4481 -1.3215 3.4066 5.024
-3.4132 -1.314 3.4027 4.9955
-3.3729 -1.3044 3.3932 4.959
-3.3331 -1.2949 3.3836 4.9229
-3.2844 -1.2819 3.3645 4.8734
-3.2521 -1.2752 3.3616 4.8479
-3.2281 -1.2717 3.3672 4.8349
-3.2162 -1.273 3.3853 4.8399
-3.171 -1.2612 3.3681 4.7948
-3.1743 -1.2686 3.4022 4.8229
-3.1575 -1.268 3.4151 4.8209
-3.1303 -1.2633 3.4165 4.8028
-3.1024 -1.2583 3.417 4.7838
-3.1147 -1.2696 3.4619 4.8268
-3.0887 -1.2654 3.4644 4.8108
-3.059 -1.2596 3.4624 4.7887
-3.0808 -1.2751 3.5191 4.8478
-3.0629 -1.2743 3.5308 4.8448
-3.0387 -1.2709 3.535 4.8317
-3.0052 -1.2635 3.5281 4.8037
-3.0272 -1.2796 3.5867 4.8647
-2.9967 -1.2735 3.5833 4.8417
-2.9656 -1.2672 3.579 4.8176
-2.9488 -1.2669 3.5916 4.8166
-2.963 -1.2801 3.6423 4.8667
-2.9374 -1.2761 3.6444 4.8516
-2.9082 -1.2706 3.6418 4.8306
-2.8911 -1.2703 3.6541 4.8296
-2.8578 -1.2629 3.6459 4.8015
-2.8727 -1.2769 3.6992 4.8546
-2.8524 -1.2753 3.7075 4.8486
-2.8303 -1.2729 3.7135 4.8395
-2.8117 -1.2721 3.7239 4.8365
-2.8128 -1.2803 3.7606 4.8676
-2.794 -1.2795 3.7709 4.8645
-2.7621 -1.2727 3.7632 4.8385
-2.745 -1.2727 3.7757 4.8384
-2.7144 -1.2663 3.7692 4.8144
-2.7382 -1.2856 3.8389 4.8875
-2.6986 -1.275 3.8197 4.8474
-2.6807 -1.2748 3.831 4.8464
-2.6589 -1.2726 3.8367 4.8384
-2.6404 -1.2721 3.8471 4.8363
-2.6491 -1.2848 3.8974 4.8844
-2.6292 -1.2837 3.9061 4.8804
-2.5944 -1.2753 3.8922 4.8483
-2.5714 -1.2726 3.8958 4.8383
-2.5443 -1.2679 3.8928 4.8203
-2.5655 -1.2874 3.9643 4.8944
-2.5475 -1.2874 3.9758 4.8943
-1.8174 -0.92493 2.8648 3.5164
-2.5063 -1.2847 3.9905 4.8843
-2.4882 -1.2847 4.0018 4.8843
-1.7798 -0.92569 2.8915 3.5193
-1.7692 -0.927 2.9037 3.5243
-1.7605 -0.92936 2.919 3.5333
-1.7473 -0.92935 2.9269 3.5332
-1.734 -0.92934 2.9348 3.5332
-1.7207 -0.92933 2.9426 3.5332
-1.7074 -0.92933 2.9503 3.5332
-1.6974 -0.93116 2.9638 3.5401
-1.6864 -0.93251 2.9758 3.5452
-1.6729 -0.9325 2.9834 3.5452
-1.658 -0.9317 2.9883 3.5422
-1.6444 -0.93169 2.9958 3.5421
-1.6317 -0.93221 3.0048 3.5441
-1.619 -0.93273 3.0139 3.5461
-1.6076 -0.93404 3.0254 3.551
-1.5967 -0.93565 3.0379 3.5572
-1.5767 -0.93195 3.033 3.5431
-1.5629 -0.93195 3.0401 3.5431
-1.5492 -0.93194 3.0471 3.5431
-1.5371 -0.93298 3.0575 3.547
-1.5232 -0.93298 3.0644 3.547
-1.5115 -0.93428 3.0756 3.552
-1.4997 -0.93562 3.0868 3.5571
-1.4857 -0.93562 3.0936 3.5571
-1.4717 -0.93562 3.1002 3.5571
-1.4577 -0.93561 3.1068 3.557
-2.2642 -1.4674 4.8832 5.579
-2.2421 -1.4674 4.8933 5.579
-2.2191 -1.4669 4.9016 5.5769
-2.1823 -1.4572 4.879 5.5399
-1.7286 -1.166 3.9119 4.4329
-1.6788 -1.1442 3.8463 4.3499
-1.5725 -1.0829 3.6475 4.117
-1.5559 -1.0829 3.6546 4.117
-1.5158 -1.0663 3.6055 4.054
-1.4633 -1.0405 3.525 3.9559
-1.4283 -1.0268 3.4851 3.9039
-1.3853 -1.0071 3.4244 3.8289
-1.3437 -0.98791 3.3652 3.7559
-1.2984 -0.96554 3.295 3.6708
-1.2527 -0.94239 3.2217 3.5828
-1.2026 -0.91533 3.1346 3.4799
-1.1884 -0.91533 3.14 3.4799
-1.157 -0.90191 3.0992 3.4289
-1.1253 -0.88796 3.0564 3.3759
-1.089 -0.87007 2.9998 3.3079
-1.0719 -0.86717 2.9947 3.2968
-1.0583 -0.86717 2.9995 3.2968
-1.0419 -0.86479 2.996 3.2878
-1.0264 -0.86321 2.9952 3.2818
-1.0129 -0.8632 2.9998 3.2818
-0.99624 -0.86057 2.9952 3.2717
-0.98238 -0.8603 2.9987 3.2707
-0.96377 -0.85582 2.9875 3.2537
-0.94824 -0.85402 2.9855 3.2468
-0.93242 -0.85191 2.9824 3.2388
-0.91892 -0.8519 2.9866 3.2388
-0.90456 -0.85111 2.9879 3.2358
-0.88828 -0.84848 2.9827 3.2258
-0.86935 -0.84321 2.9682 3.2057
-0.85431 -0.84163 2.9665 3.1997
-0.83825 -0.83899 2.961 3.1897
-0.82485 -0.83899 2.9648 3.1897
-0.81117 -0.83872 2.9675 3.1887
-0.79774 -0.83872 2.9711 3.1887
-0.7806 -0.83477 2.9607 3.1736
-0.76647 -0.83397 2.9614 3.1706
-0.74978 -0.83033 2.9519 3.1568
-0.73409 -0.8277 2.9459 3.1468
-0.71984 -0.82664 2.9454 3.1427
-0.70628 -0.82637 2.9477 3.1417
-0.69294 -0.82637 2.9508 3.1417
-0.67894 -0.82558 2.9511 3.1387
-0.66113 -0.82005 2.9344 3.1177
-0.64785 -0.82005 2.9373 3.1177
-0.63211 -0.81689 2.9289 3.1057
-0.61886 -0.81688 2.9317 3.1056
-0.6052 -0.81635 2.9326 3.1036
-0.59136 -0.81556 2.9324 3.1006
-0.57697 -0.81398 2.9294 3.0946
-0.56171 -0.81108 2.9215 3.0836
-0.5476 -0.80977 2.9193 3.0786
-0.53421 -0.8095 2.9208 3.0776
-0.51998 -0.80792 2.9174 3.0716
-0.5053 -0.80555 2.9112 3.0626
-0.4918 -0.80502 2.9115 3.0605
-0.47863 -0.80502 2.9137 3.0605
-0.46484 -0.80396 2.912 3.0565
-0.45035 -0.80163 2.9057 3.0477
-0.43663 -0.80058 2.9038 3.0437
-0.42224 -0.79821 2.8972 3.0347
-0.40913 -0.79821 2.8991 3.0346
-0.39471 -0.79557 2.8913 3.0246
-0.38163 -0.79557 2.8931 3.0246
-0.3683 -0.79504 2.8928 3.0226
-0.35462 -0.79373 2.8897 3.0176
-0.34144 -0.79346 2.8903 3.0166
-0.32792 -0.79241 2.888 3.0126
-0.31444 -0.79135 2.8856 3.0086
-0.30139 -0.79135 2.887 3.0086
-0.28814 -0.79083 2.8864 3.0066
-0.27508 -0.79082 2.8876 3.0066
-0.26062 -0.78661 2.8735 2.9906
-0.24762 -0.78661 2.8746 2.9906
-0.23462 -0.78661 2.8757 2.9906
-0.22146 -0.78608 2.8748 2.9886
-0.20783 -0.78372 2.8671 2.9796
-0.19486 -0.78371 2.868 2.9795
-0.18158 -0.7824 2.8641 2.9745
-0.16829 -0.78082 2.8591 2.9685
-0.15536 -0.78082 2.8598 2.9685
-0.14242 -0.78082 2.8605 2.9685
-0.12918 -0.77898 2.8543 2.9615
-0.11627 -0.77897 2.8549 2.9615
-0.10325 -0.77819 2.8525 2.9585
-0.090165 -0.77661 2.8471 2.9525
-0.077209 -0.77582 2.8446 2.9495
-0.064343 -0.77582 2.8449 2.9495
-0.051407 -0.77476 2.8413 2.9455
-0.038556 -0.77476 2.8415 2.9455
-0.025705 -0.77476 2.8417 2.9455
-0.012848 -0.7745 2.8408 2.9445
0 -0.7745 2.8408 2.9445
0.012848 -0.7745 2.8408 2.9445
0.025599 -0.77161 2.8301 2.9335
0.038372 -0.77108 2.828 2.9315
0.051162 -0.77108 2.8278 2.9315
0.063994 -0.77161 2.8295 2.9335
0.07679 -0.77161 2.8292 2.9335
0.089523 -0.77108 2.8269 2.9315
0.10185 -0.76766 2.8139 2.9185
0.11458 -0.76766 2.8134 2.9185
0.1273 -0.76767 2.8129 2.9185
0.14041 -0.76977 2.82 2.9265
0.15316 -0.76977 2.8193 2.9265
0.16591 -0.76977 2.8186 2.9265
0.17835 -0.76846 2.813 2.9215
0.19068 -0.76688 2.8064 2.9156
0.2033 -0.76662 2.8046 2.9146
0.21583 -0.76609 2.8017 2.9126
0.22811 -0.76478 2.7959 2.9076
0.24075 -0.76478 2.7948 2.9076
0.25313 -0.76399 2.7908 2.9046
0.26538 -0.76294 2.7858 2.9006
0.27798 -0.76294 2.7846 2.9006
0.29057 -0.76295 2.7833 2.9006
0.3043 -0.76584 2.7925 2.9116
0.31693 -0.76584 2.7911 2.9116
0.32955 -0.76584 2.7897 2.9116
0.34087 -0.76295 2.7776 2.9006
0.35246 -0.76085 2.7684 2.8926
0.36497 -0.76085 2.7668 2.8926
0.37748 -0.76085 2.7651 2.8926
0.39053 -0.76191 2.7672 2.8966
0.40304 -0.76191 2.7654 2.8967
0.41583 -0.76244 2.7655 2.8987
0.42819 -0.76218 2.7627 2.8977
0.44068 -0.76218 2.7607 2.8977
0.45392 -0.76346 2.7633 2.9025
0.46641 -0.76346 2.7612 2.9025
0.4789 -0.76346 2.7591 2.9026
0.49137 -0.76347 2.7569 2.9026
0.50384 -0.76347 2.7547 2.9026
0.51629 -0.76347 2.7524 2.9026
0.52874 -0.76347 2.75 2.9026
0.54117 -0.76348 2.7476 2.9026
0.55436 -0.76453 2.7489 2.9066
0.56678 -0.76454 2.7464 2.9066
0.5792 -0.76454 2.7438 2.9066
0.59161 -0.76454 2.7412 2.9067
0.60338 -0.76376 2.7357 2.9037
0.61554 -0.7635 2.732 2.9027
0.62746 -0.76297 2.7273 2.9007
0.64023 -0.7635 2.7263 2.9027
0.65255 -0.76351 2.7234 2.9027
0.66487 -0.76351 2.7205 2.9027
0.67693 -0.76325 2.7165 2.9018
0.68993 -0.76405 2.7162 2.9048
0.70241 -0.76427 2.7139 2.9056
0.71468 -0.76427 2.7107 2.9056
0.72869 -0.76612 2.714 2.9127
0.74096 -0.76612 2.7107 2.9127
0.75503 -0.76797 2.7138 2.9197
0.7673 -0.76797 2.7104 2.9197
0.77982 -0.76824 2.7078 2.9207
0.79206 -0.76825 2.7043 2.9207
0.80429 -0.76825 2.7007 2.9208
0.81594 -0.76773 2.6952 2.9188
0.82813 -0.76773 2.6915 2.9188
0.8403 -0.76774 2.6877 2.9188
0.85537 -0.77037 2.6931 2.9288
0.86755 -0.77038 2.6892 2.9289
0.87851 -0.76934 2.6817 2.9249
0.89606 -0.77403 2.694 2.9427
0.90731 -0.77325 2.6872 2.9397
0.91946 -0.77325 2.6831 2.9398
0.9316 -0.77326 2.6789 2.9398
0.94692 -0.77589 2.6838 2.9498
0.95905 -0.7759 2.6795 2.9498
0.97249 -0.77696 2.6788 2.9539
0.98493 -0.77722 2.6753 2.9549
0.99534 -0.77592 2.6663 2.9499
1.003 -0.7725 2.6501 2.9369
1.0149 -0.77251 2.6455 2.9369
0.9832 -0.73964 2.5285 2.812
0.99882 -0.74276 2.5347 2.8238
0.99346 -0.7304 2.4881 2.7769
0.9812 -0.71331 2.4254 2.7119
0.97314 -0.69964 2.3746 2.6599
0.9591 -0.68202 2.3105 2.5929
0.95384 -0.67098 2.2688 2.551
0.9059 -0.63048 2.1278 2.397
0.79827 -0.54974 1.8517 2.09
0.77963 -0.53133 1.7862 2.02
0.76977 -0.51924 1.7421 1.9741
0.76977 -0.51399 1.721 1.9541
0.75839 -0.50132 1.6752 1.906
0.76597 -0.50133 1.6717 1.906
0.77354 -0.50134 1.6683 1.906
0.78969 -0.50687 1.6831 1.927
0.79731 -0.50688 1.6796 1.9271
0.80491 -0.50688 1.676 1.9271
0.81249 -0.50689 1.6723 1.9271
0.81878 -0.50611 1.6661 1.9241
0.82632 -0.50612 1.6624 1.9242
0.83248 -0.5053 1.6559 1.921
0.83996 -0.5053 1.6521 1.921
0.84743 -0.5053 1.6484 1.9211
0.84599 -0.50005 1.6274 1.9011
0.84258 -0.49375 1.6031 1.8771
0.84984 -0.49375 1.5993 1.8772
0.85708 -0.49376 1.5955 1.8772
0.86522 -0.4943 1.5933 1.8792
0.87243 -0.4943 1.5894 1.8793
0.88096 -0.49506 1.5879 1.8821
0.88815 -0.49507 1.5839 1.8822
0.89674 -0.49587 1.5824 1.8852
0.90343 -0.49561 1.5775 1.8842
0.91105 -0.49589 1.5743 1.8853
0.91964 -0.49668 1.5727 1.8883
0.93314 -0.50011 1.5793 1.9013
0.94763 -0.50403 1.5874 1.9162
0.95532 -0.5043 1.584 1.9173
0.96349 -0.50484 1.5813 1.9193
0.9924 -0.51615 1.6123 1.9623
1.0155 -0.52432 1.6332 1.9934
1.0229 -0.52433 1.6286 1.9934
1.4772 -0.75182 2.3286 2.8583
1.0105 -0.51063 1.577 1.9413
1.0008 -0.50223 1.5465 1.9094
0.99676 -0.49671 1.5251 1.8884
1.0037 -0.49672 1.5206 1.8885
1.0086 -0.49579 1.5132 1.8849
1.02 -0.49802 1.5154 1.8934
1.0269 -0.49803 1.5108 1.8934
1.0343 -0.49831 1.507 1.8945
1.0411 -0.49832 1.5023 1.8945
1.0534 -0.50094 1.5055 1.9045
1.0608 -0.5012 1.5015 1.9055
1.0676 -0.50121 1.4967 1.9055
1.0805 -0.50411 1.5005 1.9165
1.0947 -0.50754 1.5057 1.9296
1.1041 -0.50872 1.5043 1.9341
1.1146 -0.51042 1.5043 1.9405
1.1266 -0.5128 1.5062 1.9496
1.1352 -0.5136 1.5034 1.9526
1.142 -0.51361 1.4983 1.9527
1.1558 -0.51674 1.5022 1.9646
1.1667 -0.5186 1.5024 1.9716
1.1747 -0.51913 1.4986 1.9737
1.1851 -0.52072 1.4979 1.9797
1.1919 -0.52073 1.4925 1.9797
1.1979 -0.52044 1.4863 1.9786
1.2047 -0.52045 1.4809 1.9787
1.2157 -0.5223 1.4807 1.9857
1.2224 -0.52231 1.4752 1.9857
1.2284 -0.52205 1.4689 1.9847
1.2319 -0.52073 1.4596 1.9797
1.1053 -0.46471 1.2976 1.7668
0.66277 -0.27719 0.77102 1.0538
0.66625 -0.27719 0.76802 1.0538
0.60875 -0.25196 0.69535 0.95789
0.60233 -0.24802 0.68178 0.94294
0.58811 -0.24093 0.65964 0.91599
0.58946 -0.24027 0.65517 0.91348
0.58625 -0.23777 0.6457 0.90397
0.57812 -0.23331 0.63098 0.88702
0.58097 -0.23331 0.62836 0.88702
0.58383 -0.23333 0.62576 0.88707
0.58202 -0.23148 0.61819 0.88006
0.58215 -0.23043 0.61275 0.87605
0.5776 -0.22755 0.60249 0.8651
0.58036 -0.22756 0.5999 0.86515
0.58571 -0.2286 0.59999 0.86908
0.57559 -0.22361 0.58431 0.85014
0.57623 -0.22284 0.57969 0.84719
0.57679 -0.22205 0.57503 0.84418
0.57183 -0.21915 0.56495 0.83318
0.57442 -0.21917 0.5624 0.83323
0.57626 -0.2189 0.55912 0.83223
0.57044 -0.21575 0.54848 0.82023
0.57291 -0.21575 0.5459 0.82023
0.57542 -0.21576 0.54334 0.82029
0.58209 -0.21734 0.54469 0.82629
0.5888 -0.21892 0.54599 0.83229
