# .PCD v.6 - Point Cloud Data file format
FIELDS x y z range
SIZE 4 4 4 4
TYPE F F F F
COUNT 1 1 1 1
WIDTH 1637
HEIGHT 1
POINTS 1637
DATA ascii
nan nan nan -inf
nan nan nan -inf
nan nan nan -inf
nan nan nan -inf
nan nan nan -inf
nan nan nan -inf
nan nan nan -inf
nan nan nan -inf
-1.1705 0.4076 1.0133 1.6009
-1.1725 0.4099 1.0243 1.61
-1.1816 0.41473 1.0417 1.6289
-1.187 0.41829 1.056 1.6429
-1.1887 0.42058 1.0672 1.6519
-1.1868 0.42159 1.0751 1.6559
-1.1876 0.42362 1.0856 1.6639
-1.1855 0.42465 1.0936 1.6679
-1.1951 0.42986 1.1125 1.6884
-1.2009 0.4338 1.1281 1.7038
-1.1973 0.43431 1.1348 1.7058
-1.1955 0.43555 1.1435 1.7107
-1.2008 0.43938 1.159 1.7258
-1.1963 0.43964 1.1651 1.7268
-1.2107 0.44689 1.1897 1.7552
-1.2228 0.45337 1.2125 1.7807
-1.218 0.45363 1.2187 1.7817
-1.2233 0.45769 1.2352 1.7977
-1.2184 0.45794 1.2413 1.7986
-1.2128 0.45794 1.2468 1.7987
-1.2072 0.45795 1.2523 1.7987
-1.2045 0.45908 1.2609 1.8031
-1.1984 0.45895 1.2659 1.8026
-1.2 0.46175 1.2791 1.8136
-1.1922 0.46098 1.2823 1.8106
-1.187 0.46122 1.2884 1.8115
-1.1838 0.46224 1.2966 1.8155
-1.178 0.46225 1.3019 1.8156
-1.1721 0.46223 1.3072 1.8155
-1.1674 0.46273 1.3139 1.8175
-1.1615 0.46274 1.3191 1.8175
-1.1625 0.46554 1.3324 1.8285
-1.1593 0.46667 1.3409 1.833
-1.1541 0.46704 1.3472 1.8344
-1.1512 0.46832 1.3561 1.8394
-1.1457 0.46858 1.362 1.8404
-1.1389 0.46833 1.3664 1.8395
-1.1296 0.46703 1.3677 1.8343
-1.1259 0.46805 1.3758 1.8384
-1.1233 0.46958 1.3854 1.8444
-1.1189 0.47035 1.3927 1.8474
-1.1095 0.46905 1.3939 1.8423
-1.1122 0.47287 1.4103 1.8573
-1.1064 0.47313 1.4161 1.8583
-1.1066 0.47593 1.4295 1.8693
-1.0995 0.47567 1.4336 1.8683
-1.0906 0.47464 1.4355 1.8642
-1.0865 0.47566 1.4435 1.8682
-1.0829 0.47694 1.4523 1.8733
-1.0817 0.47934 1.4645 1.8827
-1.0771 0.48022 1.472 1.8862
-1.0716 0.48073 1.4785 1.8882
-1.0649 0.48074 1.4833 1.8882
-1.0613 0.48213 1.4924 1.8936
-1.0542 0.48199 1.4967 1.8931
-1.0474 0.48199 1.5015 1.8931
-1.0462 0.48454 1.5141 1.9031
-1.041 0.48531 1.5213 1.9061
-1.0373 0.48682 1.5307 1.9121
-1.0336 0.48834 1.5401 1.918
-1.0267 0.48834 1.5448 1.918
-1.0234 0.49012 1.5551 1.9251
-1.0206 0.49217 1.5662 1.9331
-1.0117 0.49126 1.5679 1.9295
-1.0027 0.49036 1.5695 1.926
-0.99617 0.49061 1.5749 1.927
-1.0009 0.49647 1.5982 1.95
-2.4413 1.2198 3.9378 4.791
-2.4715 1.244 4.0269 4.8859
-2.4533 1.244 4.038 4.8859
-2.4221 1.2373 4.0275 4.8599
-1.8335 0.94376 3.0802 3.7068
-1.8214 0.94467 3.0914 3.7104
-1.7898 0.93546 3.0694 3.6742
-1.7723 0.93356 3.0712 3.6668
-1.7584 0.93354 3.0791 3.6667
-1.7434 0.93296 3.0851 3.6644
-1.7292 0.93283 3.0925 3.6639
-1.714 0.93215 3.098 3.6612
-1.7021 0.93329 3.1095 3.6657
-1.6876 0.93306 3.1164 3.6648
-1.667 0.92943 3.1118 3.6505
-1.651 0.92831 3.1156 3.6461
-1.6362 0.92789 3.1216 3.6445
-1.6201 0.92675 3.1251 3.64
-1.6042 0.92571 3.1288 3.6359
-1.5905 0.92599 3.137 3.637
-1.5753 0.92535 3.142 3.6345
-1.56 0.92469 3.1468 3.6319
-1.545 0.92424 3.1523 3.6301
-1.5291 0.92326 3.1558 3.6263
-1.5151 0.92343 3.1633 3.6269
-1.499 0.9223 3.1662 3.6225
-1.4845 0.92217 3.1725 3.622
-1.4706 0.92246 3.1802 3.6232
-1.4556 0.92201 3.1852 3.6214
-1.4379 0.91994 3.1846 3.6132
-1.423 0.91957 3.1897 3.6118
-1.4085 0.91949 3.1959 3.6115
-1.3939 0.91938 3.2018 3.6111
-1.38 0.91981 3.2096 3.6127
-1.3641 0.9188 3.2122 3.6088
-1.3493 0.91865 3.2178 3.6082
-1.3354 0.91907 3.2253 3.6098
-1.3217 0.91969 3.2335 3.6123
-1.3062 0.91901 3.2371 3.6096
-1.2904 0.9182 3.2401 3.6064
-1.2738 0.91675 3.2407 3.6007
-1.2597 0.91717 3.2479 3.6024
-1.2473 0.91887 3.2596 3.6091
-1.2314 0.91798 3.262 3.6055
-1.2161 0.9175 3.2659 3.6037
-1.2017 0.91777 3.2723 3.6047
-1.1906 0.92067 3.288 3.6161
-1.1763 0.92107 3.2948 3.6177
-1.1584 0.91866 3.2914 3.6082
-1.143 0.91824 3.2951 3.6066
-1.1257 0.91626 3.2931 3.5988
-1.1117 0.91698 3.3008 3.6016
-1.0992 0.91898 3.3129 3.6095
-1.0842 0.91895 3.3178 3.6094
-1.0776 0.92617 3.3487 3.6377
-1.0593 0.92336 3.3434 3.6267
-1.404 1.2415 4.5019 4.8764
-1.3797 1.238 4.4952 4.8624
-1.3557 1.2347 4.4894 4.8494
-1.3349 1.2342 4.4936 4.8474
-1.3141 1.2337 4.4977 4.8454
-1.314 1.253 4.5741 4.9213
-1.2926 1.2522 4.5772 4.9183
-1.2688 1.2492 4.5718 4.9063
-1.2482 1.2492 4.5775 4.9063
-1.2255 1.2471 4.5756 4.8983
-1.2044 1.2466 4.5792 4.8963
-1.1801 1.2428 4.5706 4.8813
-1.1592 1.2425 4.5749 4.8803
-1.1351 1.2387 4.566 4.8653
-1.1133 1.2375 4.5664 4.8603
-1.0895 1.2339 4.5582 4.8463
-1.069 1.2339 4.5631 4.8463
-1.0473 1.2326 4.5632 4.8413
-1.0252 1.2308 4.5612 4.8344
-1.0046 1.2308 4.5658 4.8344
-0.984 1.2308 4.5703 4.8344
-0.96157 1.2285 4.5662 4.8254
-0.95692 1.2494 4.648 4.9072
-0.93556 1.2489 4.6504 4.9052
-0.91289 1.2466 4.646 4.8962
-0.89155 1.2461 4.6482 4.8942
-0.87039 1.2458 4.6512 4.8932
-0.84784 1.2435 4.6465 4.8842
-0.82686 1.2435 4.6503 4.8842
-0.80538 1.2428 4.6512 4.8812
-0.78214 1.2392 4.6414 4.8672
-0.76072 1.2384 4.642 4.8642
-0.73931 1.2377 4.6425 4.8612
-0.71835 1.2377 4.6458 4.8612
-0.69509 1.2336 4.6337 4.8452
-0.67418 1.2336 4.6368 4.8452
-0.65284 1.2328 4.6369 4.8422
-0.63231 1.2336 4.6427 4.8452
-0.61047 1.2318 4.6388 4.8383
-0.58953 1.2318 4.6415 4.8383
-0.56859 1.2318 4.6441 4.8383
-0.54808 1.2328 4.6505 4.8423
-0.52611 1.2306 4.6443 4.8333
-0.50525 1.2308 4.6476 4.8343
-0.48508 1.2328 4.6575 4.8423
-0.4633 1.2308 4.6519 4.8343
-0.44221 1.2306 4.653 4.8333
-0.4206 1.2288 4.6482 4.8263
-0.39929 1.2278 4.6462 4.8223
-0.37817 1.2273 4.6461 4.8203
-0.35713 1.227 4.6468 4.8193
-0.33609 1.2267 4.6474 4.8183
-0.31498 1.2262 4.6469 4.8163
-0.29913 1.2476 4.7292 4.9001
-0.27717 1.2448 4.7199 4.8891
-0.2555 1.243 4.7143 4.8821
-0.23423 1.243 4.7154 4.8821
-0.21295 1.243 4.7164 4.8821
-0.19179 1.2438 4.7202 4.8851
-0.17056 1.2443 4.723 4.8871
-0.14927 1.2445 4.7247 4.8881
-0.12796 1.2445 4.7253 4.8881
-0.1067 1.2453 4.7287 4.8911
-0.085362 1.2453 4.7292 4.8911
-0.063984 1.2445 4.7266 4.8881
-0.04264 1.244 4.7249 4.8861
-0.021321 1.244 4.725 4.8861
0 1.2417 4.7164 4.8771
0.021267 1.241 4.7134 4.8741
0.042551 1.2415 4.7152 4.8761
0.063826 1.2415 4.715 4.8761
0.085099 1.2415 4.7147 4.8761
0.10663 1.2445 4.7258 4.8881
0.12795 1.2445 4.7253 4.8881
0.14943 1.2458 4.7295 4.8931
0.17076 1.2458 4.7288 4.8931
0.19229 1.2471 4.7328 4.8981
0.21382 1.2481 4.7357 4.9021
0.23519 1.2481 4.7347 4.9021
0.25655 1.2481 4.7336 4.9021
0.2779 1.2481 4.7324 4.9021
0.29487 1.2298 4.6618 4.8303
0.3159 1.2298 4.6604 4.8303
0.33671 1.229 4.656 4.8273
0.35772 1.229 4.6545 4.8273
0.37887 1.2295 4.6547 4.8293
0.39987 1.2295 4.653 4.8293
0.42086 1.2295 4.6511 4.8293
0.44184 1.2295 4.6492 4.8293
0.46349 1.2313 4.6539 4.8363
0.48448 1.2313 4.6517 4.8363
0.50536 1.2311 4.6485 4.8353
0.52644 1.2313 4.6472 4.8363
0.5474 1.2313 4.6447 4.8363
0.56847 1.2316 4.6432 4.8373
0.59051 1.2339 4.6492 4.8463
0.61249 1.2359 4.6542 4.8542
0.63361 1.2362 4.6523 4.8552
0.65487 1.2367 4.6513 4.8572
0.67584 1.2367 4.6483 4.8572
0.69695 1.2369 4.6462 4.8582
0.71806 1.2372 4.6439 4.8592
0.73961 1.2382 4.6444 4.8632
0.75993 1.2372 4.6372 4.8592
0.78085 1.2372 4.6338 4.8592
0.80175 1.2372 4.6302 4.8592
0.82128 1.2351 4.6189 4.8512
0.84124 1.2339 4.6104 4.8462
0.86168 1.2333 4.6046 4.8442
0.88244 1.2333 4.6007 4.8442
0.90282 1.2328 4.5948 4.8422
0.91839 1.226 4.5651 4.8152
0.93628 1.2224 4.5478 4.8014
0.95858 1.2247 4.552 4.8104
0.97708 1.2222 4.5382 4.8004
0.99713 1.2217 4.5318 4.7984
1.0135 1.2168 4.5094 4.7793
1.0334 1.2163 4.5028 4.7773
1.0531 1.2156 4.4953 4.7743
1.0725 1.2145 4.4867 4.7703
1.0909 1.2125 4.4743 4.7623
1.1092 1.2105 4.4619 4.7543
1.1231 1.2038 4.4324 4.7283
1.1428 1.2036 4.4264 4.7273
1.1628 1.2036 4.4212 4.7273
1.1817 1.2026 4.4121 4.7233
1.2016 1.2026 4.4068 4.7233
1.2207 1.2018 4.3985 4.7203
1.2348 1.1962 4.3725 4.6983
1.2543 1.196 4.3661 4.6975
1.274 1.196 4.3604 4.6974
1.2876 1.1904 4.3342 4.6754
1.306 1.1894 4.3246 4.6714
1.3241 1.1881 4.314 4.6664
1.3432 1.1878 4.3071 4.6654
1.3623 1.1876 4.3001 4.6644
0.41544 0.35706 1.291 1.4024
0.40959 0.34717 1.2534 1.3636
0.41219 0.34462 1.2424 1.3536
0.41409 0.34156 1.2295 1.3416
0.41681 0.33927 1.2194 1.3326
0.42199 0.33901 1.2166 1.3315
0.42041 0.33341 1.1946 1.3095
0.42547 0.33315 1.1917 1.3085
0.42788 0.33086 1.1816 1.2995
0.4282 0.32704 1.166 1.2845
0.42738 0.32246 1.1478 1.2665
0.43153 0.32169 1.1431 1.2635
0.43605 0.32122 1.1395 1.2617
0.44048 0.32071 1.1357 1.2597
0.44524 0.32045 1.1328 1.2586
0.44391 0.31587 1.1146 1.2406
0.44676 0.31434 1.1072 1.2346
0.44516 0.30975 1.0891 1.2166
0.44896 0.30899 1.0844 1.2136
0.4501 0.30644 1.0734 1.2036
0.4504 0.30338 1.0607 1.1916
0.45601 0.30393 1.0605 1.1937
0.46001 0.30342 1.0567 1.1917
0.45775 0.29883 1.0387 1.1737
0.46164 0.29832 1.0348 1.1717
0.4659 0.29807 1.0318 1.1707
0.46854 0.29679 1.0253 1.1657
0.46829 0.29373 1.0126 1.1537
0.47162 0.29297 1.0079 1.1507
0.47285 0.29093 0.99874 1.1427
0.47031 0.28664 0.98191 1.1258
0.47473 0.28664 0.97976 1.1258
0.47872 0.28638 0.97674 1.1248
0.48097 0.2851 0.97023 1.1198
0.481 0.28255 0.95939 1.1098
0.48401 0.28179 0.95462 1.1068
0.47816 0.27593 0.93262 1.0838
0.48198 0.27571 0.92972 1.0829
0.48482 0.27495 0.92496 1.0799
0.48808 0.27443 0.92104 1.0779
0.48949 0.2729 0.91371 1.0719
0.49222 0.27214 0.90893 1.0689
0.49167 0.26959 0.89821 1.0589
0.49477 0.26908 0.89428 1.0569
0.49745 0.26835 0.88962 1.054
0.49955 0.26733 0.88399 1.05
0.50305 0.26707 0.88088 1.049
0.5046 0.26579 0.8744 1.044
0.50561 0.26426 0.86709 1.0379
0.50362 0.2612 0.8548 1.0259
0.50354 0.25918 0.84591 1.018
0.50638 0.25869 0.84202 1.016
0.50214 0.25461 0.8265 1
0.50586 0.25461 0.82421 1
0.50956 0.2546 0.82191 1
0.51355 0.25474 0.82006 1.0006
0.51598 0.25412 0.81573 0.99811
0.51809 0.25335 0.81094 0.9951
0.52173 0.25335 0.80858 0.99509
0.51692 0.24927 0.79324 0.97907
0.51707 0.24763 0.7857 0.97262
0.51983 0.24726 0.78219 0.97118
0.52281 0.247 0.77902 0.97016
0.52631 0.247 0.77664 0.97015
0.52379 0.2442 0.76547 0.95913
0.52617 0.2437 0.76155 0.95718
0.52465 0.24142 0.75207 0.94823
0.52469 0.23989 0.74494 0.94222
0.5258 0.23887 0.7394 0.9382
0.52944 0.23901 0.73745 0.93875
0.53307 0.23915 0.73548 0.93931
0.53409 0.23813 0.72994 0.93529
0.53679 0.23787 0.72673 0.93427
0.54006 0.23786 0.72429 0.93426
0.53841 0.23571 0.71531 0.92581
0.52908 0.23025 0.69636 0.90436
0.53162 0.22999 0.69319 0.90334
0.53414 0.22973 0.69 0.90232
0.53817 0.23013 0.68877 0.90387
0.5416 0.23027 0.68675 0.90442
0.54287 0.2295 0.68201 0.9014
0.54412 0.22873 0.67728 0.89838
0.54355 0.22722 0.67035 0.89244
0.54292 0.2257 0.66344 0.88649
0.5459 0.2257 0.66097 0.88647
0.54577 0.22442 0.65477 0.88145
0.54746 0.22391 0.65081 0.87943
0.54922 0.22343 0.64695 0.87756
0.55023 0.22266 0.64225 0.87454
0.55185 0.22215 0.63828 0.87252
0.54962 0.2201 0.62994 0.8645
0.55446 0.2209 0.62972 0.86762
0.55535 0.22013 0.62503 0.8646
0.55751 0.21987 0.62179 0.86358
0.5577 0.21885 0.61638 0.85956
0.56316 0.21989 0.6168 0.86368
0.55871 0.21709 0.60641 0.85266
0.56011 0.21657 0.60246 0.85064
0.56153 0.21608 0.59854 0.84868
0.56293 0.21558 0.59463 0.84673
0.56559 0.21557 0.59207 0.8467
0.56325 0.21367 0.58432 0.83925
0.56625 0.21381 0.58215 0.83979
0.56479 0.21228 0.57543 0.83377
0.56638 0.21191 0.57187 0.8323
0.56728 0.21128 0.56762 0.82984
0.56707 0.21025 0.56232 0.82582
0.56997 0.21039 0.56012 0.82636
0.57355 0.21078 0.55858 0.82789
0.56979 0.20849 0.54992 0.81887
0.57159 0.20824 0.5467 0.8179
0.57478 0.2085 0.5448 0.81893
0.57651 0.20824 0.54153 0.81791
0.57083 0.20532 0.53137 0.80644
0.56791 0.20342 0.52389 0.79898
0.56954 0.20316 0.52065 0.79795
0.57186 0.20315 0.51806 0.79793
0.5786 0.20471 0.51943 0.80405
0.58164 0.20496 0.51744 0.80502
0.58323 0.2047 0.51415 0.80399
0.58192 0.20343 0.50836 0.79903
0.57838 0.20141 0.50068 0.79106
0.58103 0.20154 0.4984 0.79159
nan nan nan -inf
nan nan nan -inf
nan nan nan -inf
nan nan nan -inf
nan nan nan -inf
nan nan nan -inf
nan nan nan -inf
nan nan nan -inf
nan nan nan -inf
nan nan nan -inf
nan nan nan -inf
nan nan nan -inf
nan nan nan -inf
nan nan nan -inf
-1.1769 0.41673 1.0167 1.6101
-1.1766 0.41827 1.0258 1.6161
-1.1778 0.42035 1.0363 1.6241
-1.1868 0.42526 1.0537 1.6431
-1.1921 0.42888 1.0681 1.6571
-1.1909 0.43018 1.0767 1.6621
-1.1877 0.43082 1.0837 1.6645
-1.186 0.43197 1.092 1.669
-1.1981 0.43819 1.1131 1.693
-1.1979 0.43999 1.1231 1.7
-1.2047 0.44438 1.1398 1.717
-1.2017 0.44515 1.1472 1.7199
-1.195 0.44462 1.1512 1.7179
-1.2078 0.45135 1.1741 1.7439
-1.2067 0.45291 1.1836 1.7499
-1.2075 0.45523 1.1952 1.7589
-1.2171 0.46092 1.2156 1.7808
-1.2232 0.46532 1.2328 1.7979
-1.2213 0.46674 1.242 1.8033
-1.2153 0.4666 1.2472 1.8028
-1.2103 0.46686 1.2534 1.8038
-1.2053 0.46713 1.2595 1.8048
-1.1996 0.4671 1.2649 1.8047
-1.1978 0.46866 1.2745 1.8108
-1.1993 0.47151 1.2877 1.8218
-1.1931 0.47137 1.2927 1.8212
-1.1869 0.47123 1.2977 1.8207
-1.1823 0.47175 1.3045 1.8227
-1.1765 0.47176 1.3099 1.8227
-1.1711 0.47198 1.3158 1.8236
-1.1651 0.47199 1.3211 1.8236
-1.1605 0.47251 1.3278 1.8257
-1.1601 0.47485 1.3396 1.8347
-1.1546 0.47507 1.3455 1.8355
-1.1486 0.47508 1.3507 1.8356
-1.1425 0.47508 1.3559 1.8356
-1.137 0.47535 1.3618 1.8366
-1.1351 0.47715 1.3721 1.8435
-1.1313 0.47817 1.3802 1.8475
-1.1263 0.47869 1.3868 1.8495
-1.12 0.47869 1.3918 1.8495
-1.1161 0.47972 1.3999 1.8535
-1.1097 0.4797 1.4049 1.8534
-1.1075 0.48152 1.4152 1.8604
-1.1029 0.4823 1.4225 1.8635
-1.0965 0.4823 1.4275 1.8635
-1.0993 0.48641 1.4446 1.8794
-1.0928 0.48642 1.4496 1.8794
-1.0897 0.48798 1.4592 1.8854
-1.0814 0.4872 1.4618 1.8824
-1.0779 0.48861 1.4709 1.8879
-1.0743 0.49002 1.48 1.8933
-1.0676 0.49003 1.4848 1.8933
-1.0609 0.49003 1.4897 1.8933
-1.0561 0.49093 1.4972 1.8968
-1.0523 0.49234 1.5062 1.9022
-1.0488 0.49389 1.5157 1.9083
-1.0436 0.49467 1.5229 1.9113
-1.0373 0.49494 1.5284 1.9123
-1.0293 0.4944 1.5314 1.9102
-1.0239 0.49517 1.5384 1.9132
-1.017 0.49517 1.543 1.9132
-1.0121 0.49621 1.5508 1.9172
-1.015 0.50113 1.5708 1.9362
-1.0087 0.50151 1.5766 1.9377
-1.0008 0.5011 1.5798 1.9361
-1.0018 0.50525 1.5975 1.9521
-2.4074 1.223 3.8776 4.7251
-2.3899 1.223 3.8884 4.7252
-2.4059 1.2403 3.9544 4.792
-2.3875 1.24 3.9644 4.791
-1.8347 0.96013 3.0779 3.7096
-1.8251 0.96237 3.0933 3.7183
-1.7889 0.95059 3.0636 3.6728
-1.7747 0.95041 3.071 3.6721
-1.7588 0.94933 3.0756 3.6679
-1.7454 0.9496 3.0844 3.669
-1.7301 0.94885 3.0897 3.6661
-1.7183 0.95006 3.1015 3.6707
-1.7041 0.94994 3.1088 3.6703
-1.6891 0.94945 3.1149 3.6684
-1.674 0.94884 3.1205 3.666
-1.6534 0.94515 3.1158 3.6518
-1.6387 0.94482 3.1222 3.6505
-1.6253 0.94523 3.1309 3.6521
-1.6118 0.94562 3.1395 3.6536
-1.5959 0.9446 3.1434 3.6497
-1.5815 0.9445 3.1502 3.6493
-1.5632 0.94202 3.149 3.6397
-1.5496 0.94242 3.1574 3.6412
-1.5353 0.9424 3.1643 3.6412
-1.5191 0.94125 3.1673 3.6367
-1.5039 0.9407 3.1723 3.6346
-1.489 0.94037 3.178 3.6333
-1.4741 0.94001 3.1834 3.6319
-1.4597 0.94 3.19 3.6319
-1.4437 0.93899 3.1931 3.628
-1.4288 0.93869 3.1986 3.6268
-1.4119 0.93703 3.1994 3.6204
-1.3975 0.93709 3.2059 3.6206
-1.3837 0.93756 3.2138 3.6224
-1.3695 0.93781 3.2209 3.6234
-1.3555 0.93818 3.2283 3.6249
-1.338 0.93613 3.2274 3.6169
-1.3225 0.93554 3.2313 3.6146
-1.3115 0.93812 3.2462 3.6246
-1.2941 0.93614 3.2452 3.617
-1.2784 0.93541 3.2485 3.6141
-1.2671 0.93788 3.2628 3.6237
-1.2483 0.93489 3.2581 3.6121
-1.2341 0.93525 3.265 3.6135
-1.2216 0.93698 3.2765 3.6202
-1.2075 0.93759 3.2842 3.6226
-1.1922 0.93718 3.2882 3.621
-1.1773 0.93719 3.2935 3.621
-1.1609 0.93598 3.2946 3.6163
-1.1432 0.93367 3.2916 3.6074
-1.1286 0.93387 3.2975 3.6082
-1.112 0.93251 3.2977 3.6029
-1.1013 0.93602 3.3152 3.6165
-1.0898 0.93909 3.331 3.6284
-1.0725 0.93708 3.3287 3.6206
-1.056 0.93577 3.3289 3.6155
-1.3812 1.2417 4.4235 4.7976
-1.3604 1.2409 4.4269 4.7946
-1.3395 1.2402 4.4302 4.7916
-1.3179 1.2386 4.4307 4.7856
-1.29 1.2311 4.4097 4.7566
-1.2938 1.2541 4.498 4.8455
-1.2724 1.2531 4.5001 4.8415
-1.2502 1.2513 4.4993 4.8345
-1.2266 1.2479 4.4928 4.8215
-1.2063 1.2479 4.4983 4.8215
-1.1854 1.2474 4.5018 4.8195
-1.1646 1.2469 4.5052 4.8175
-1.1443 1.2469 4.5105 4.8175
-1.1183 1.2406 4.4931 4.7935
-1.0959 1.2383 4.4897 4.7845
-1.0711 1.2331 4.4758 4.7645
-1.0493 1.2313 4.474 4.7575
-1.0291 1.2313 4.4787 4.7575
-1.0091 1.2316 4.4842 4.7585
-0.98883 1.2316 4.4888 4.7585
-0.96834 1.2313 4.4922 4.7575
-0.96156 1.2489 4.5607 4.8254
-0.94075 1.2486 4.564 4.8244
-0.91936 1.2476 4.5645 4.8204
-0.89818 1.2468 4.5657 4.8174
-0.87499 1.2432 4.5565 4.8034
-0.8544 1.2432 4.5604 4.8034
-0.8331 1.2422 4.5604 4.7994
-0.81165 1.2409 4.5593 4.7944
-0.79005 1.2393 4.5573 4.7884
-0.76898 1.2386 4.5579 4.7854
-0.74775 1.2375 4.5575 4.7814
-0.72716 1.2375 4.5609 4.7814
-0.70566 1.236 4.5584 4.7754
-0.68507 1.236 4.5615 4.7754
-0.6639 1.2349 4.5608 4.7714
-0.64329 1.2349 4.5637 4.7714
-0.62267 1.2349 4.5666 4.7714
-0.60165 1.2342 4.5665 4.7684
-0.58175 1.2357 4.5749 4.7744
-0.56108 1.2357 4.5775 4.7744
-0.53972 1.2342 4.5742 4.7684
-0.51622 1.2274 4.5517 4.7424
-0.49534 1.2267 4.5511 4.7394
-0.47478 1.2267 4.5533 4.7394
-0.45449 1.2274 4.5582 4.7424
-0.43353 1.2264 4.5564 4.7384
-0.41295 1.2264 4.5583 4.7384
-0.3921 1.2256 4.5572 4.7354
-0.37817 1.2476 4.6406 4.8203
-0.35713 1.2473 4.6413 4.8193
-0.33609 1.2471 4.6419 4.8183
-0.31498 1.2465 4.6415 4.8163
-0.29389 1.246 4.6409 4.8143
-0.27275 1.2453 4.6393 4.8113
-0.25143 1.2434 4.6338 4.8043
-0.2304 1.2429 4.6329 4.8023
-0.20925 1.2416 4.6291 4.7973
-0.18826 1.2411 4.6281 4.7953
-0.16742 1.2416 4.6308 4.7973
-0.1465 1.2416 4.6315 4.7973
-0.12558 1.2416 4.6321 4.7973
-0.10467 1.2419 4.6336 4.7983
-0.083916 1.2445 4.6437 4.8083
-0.062992 1.2455 4.6479 4.8123
-0.041961 1.2445 4.6443 4.8083
-0.020981 1.2445 4.6444 4.8083
0 1.2437 4.6415 4.8053
0.020936 1.2419 4.6347 4.7983
0.041872 1.2419 4.6346 4.7983
0.062807 1.2419 4.6344 4.7983
0.083758 1.2421 4.635 4.7993
0.10483 1.2437 4.6404 4.8053
0.12579 1.2437 4.6398 4.8053
0.14674 1.2437 4.6392 4.8053
0.16773 1.244 4.6395 4.8063
0.18869 1.244 4.6387 4.8063
0.21012 1.2468 4.6484 4.8173
0.2315 1.2489 4.6551 4.8253
0.25253 1.2489 4.654 4.8253
0.27383 1.2502 4.6576 4.8303
0.29487 1.2502 4.6564 4.8303
0.3159 1.2502 4.655 4.8303
0.33671 1.2494 4.6506 4.8273
0.35787 1.2499 4.651 4.8293
0.37159 1.2259 4.5599 4.7364
0.39251 1.2269 4.5621 4.7404
0.41321 1.2272 4.5612 4.7414
0.43426 1.2285 4.5641 4.7464
0.45487 1.2285 4.5621 4.7464
0.47758 1.2339 4.5802 4.7674
0.49827 1.2339 4.5779 4.7674
0.51894 1.2339 4.5756 4.7674
0.53949 1.2336 4.5723 4.7664
0.55943 1.2321 4.5641 4.7604
0.58004 1.2321 4.5615 4.7604
0.6014 1.2336 4.5646 4.7664
0.62227 1.2342 4.5637 4.7684
0.64288 1.2342 4.5608 4.7684
0.6639 1.2349 4.5608 4.7714
0.68564 1.237 4.5654 4.7794
0.70655 1.2375 4.5641 4.7814
0.72716 1.2375 4.5609 4.7814
0.74775 1.2375 4.5575 4.7814
0.7693 1.2391 4.5598 4.7874
0.79104 1.2409 4.563 4.7944
0.81232 1.2419 4.5631 4.7984
0.83293 1.2419 4.5594 4.7984
0.85405 1.2427 4.5585 4.8014
0.87481 1.2429 4.5555 4.8024
0.89538 1.2429 4.5515 4.8024
0.91574 1.2427 4.5465 4.8014
0.93802 1.245 4.5508 4.8104
0.94625 1.229 4.4881 4.7485
0.96814 1.2311 4.4913 4.7565
0.98925 1.2321 4.4906 4.7605
1.0095 1.2321 4.4861 4.7605
1.0289 1.2311 4.4777 4.7565
1.0489 1.2308 4.4721 4.7555
1.0691 1.2308 4.4673 4.7555
1.0893 1.2308 4.4624 4.7555
1.1068 1.228 4.4472 4.7445
1.1269 1.228 4.4421 4.7445
1.147 1.228 4.437 4.7445
1.167 1.228 4.4317 4.7445
1.1825 1.2233 4.4096 4.7265
1.1994 1.2202 4.393 4.7145
1.2182 1.2192 4.3839 4.7105
1.2348 1.216 4.3672 4.6985
1.2559 1.2174 4.3663 4.7036
1.2756 1.2174 4.3606 4.7036
1.2931 1.2153 4.3474 4.6956
1.3088 1.2117 4.3285 4.6816
1.3263 1.2099 4.3161 4.6746
1.3426 1.207 4.2999 4.6636
1.3612 1.2062 4.2911 4.6606
0.42761 0.37362 1.3272 1.4436
0.40932 0.3527 1.251 1.3627
0.41405 0.35192 1.2464 1.3597
0.41721 0.34985 1.2372 1.3517
0.41841 0.34623 1.2225 1.3377
0.42044 0.34338 1.2106 1.3267
0.42013 0.33872 1.1923 1.3087
0.42453 0.33794 1.1876 1.3057
0.42692 0.33561 1.1775 1.2967
0.42824 0.3325 1.1647 1.2847
0.43248 0.33172 1.16 1.2817
0.43635 0.33068 1.1544 1.2777
0.43643 0.32684 1.139 1.2628
0.43807 0.32425 1.1281 1.2528
0.44068 0.32244 1.1198 1.2458
0.44323 0.32062 1.1115 1.2388
0.44715 0.31985 1.1068 1.2358
0.45215 0.31984 1.1047 1.2358
0.45047 0.31518 1.0866 1.2178
0.45238 0.31311 1.0774 1.2098
0.45232 0.30974 1.0638 1.1968
0.45598 0.30896 1.0591 1.1937
0.45696 0.30642 1.0483 1.1839
0.45895 0.3046 1.04 1.1769
0.46246 0.30382 1.0353 1.1739
0.46514 0.30253 1.0288 1.1689
0.46978 0.30252 1.0267 1.1689
0.4671 0.29786 1.0087 1.1509
0.46755 0.29527 0.99787 1.1408
0.46957 0.29372 0.9905 1.1348
0.47535 0.29453 0.99112 1.138
0.47982 0.29453 0.98895 1.138
0.47832 0.2909 0.97462 1.124
0.47842 0.28831 0.96379 1.114
0.47973 0.2865 0.95557 1.1069
0.48185 0.2852 0.94908 1.1019
0.47907 0.28106 0.93313 1.0859
0.48512 0.28213 0.93451 1.0901
0.4817 0.27773 0.91776 1.0731
0.48493 0.27721 0.91386 1.071
0.48768 0.27643 0.9091 1.068
0.48948 0.27513 0.90263 1.063
0.49169 0.27409 0.89701 1.059
0.49342 0.27281 0.8906 1.0541
0.49511 0.27153 0.8842 1.0491
0.49909 0.27153 0.88195 1.0491
0.5021 0.27101 0.878 1.0471
0.50461 0.27023 0.8732 1.0441
0.5027 0.26712 0.86089 1.0321
0.50244 0.26494 0.85159 1.0236
0.50457 0.26405 0.84645 1.0202
0.50589 0.26275 0.84001 1.0152
0.50918 0.26249 0.83688 1.0142
0.5094 0.26067 0.8288 1.0072
0.5124 0.2603 0.82531 1.0057
0.50923 0.25682 0.81198 0.99226
0.51237 0.25655 0.80884 0.99125
0.51549 0.25629 0.8057 0.99023
0.51911 0.25629 0.80335 0.99022
0.51669 0.25332 0.79174 0.97877
0.51418 0.25036 0.78016 0.96732
0.51769 0.25036 0.77782 0.96731
0.52119 0.25035 0.77546 0.96729
0.52468 0.25035 0.77309 0.96728
0.52383 0.24829 0.76438 0.95933
0.52511 0.24727 0.75887 0.95538
0.52852 0.24727 0.75647 0.95537
0.52413 0.24364 0.74302 0.94135
0.52691 0.24338 0.73984 0.94034
0.52467 0.24082 0.7297 0.93045
0.52796 0.24082 0.72731 0.93044
0.53066 0.24055 0.72413 0.92942
0.53449 0.24081 0.72249 0.93041
0.53431 0.23927 0.71546 0.92446
0.53291 0.23721 0.70691 0.91651
0.53316 0.23591 0.70064 0.91149
0.53631 0.23591 0.69821 0.91147
0.53949 0.23592 0.69582 0.91153
0.54385 0.23645 0.69494 0.91358
0.54099 0.23386 0.68488 0.90356
0.54407 0.23385 0.68242 0.90354
0.54471 0.23281 0.67693 0.89953
0.54662 0.23233 0.67306 0.89766
0.5472 0.23129 0.66758 0.89364
0.54281 0.22818 0.65616 0.88162
0.54575 0.22817 0.65369 0.8816
0.54811 0.22793 0.65051 0.88065
0.55045 0.22768 0.64733 0.8797
0.55273 0.22742 0.64409 0.87868
0.55372 0.22664 0.63939 0.87566
0.54933 0.22368 0.62855 0.86422
0.54932 0.22252 0.62284 0.85977
0.55211 0.22252 0.62034 0.85974
0.55296 0.22174 0.61566 0.85672
0.55966 0.2233 0.61749 0.86277
0.56182 0.22305 0.61427 0.86182
0.55671 0.21994 0.6032 0.84979
0.55749 0.21918 0.59859 0.84684
0.55955 0.21893 0.59539 0.84588
0.56023 0.21815 0.59074 0.84286
0.56292 0.21816 0.58823 0.8429
0.56023 0.2161 0.58015 0.83494
0.56282 0.21609 0.57759 0.83491
0.56338 0.21531 0.57296 0.83189
0.56807 0.21611 0.57254 0.83499
0.56859 0.21533 0.5679 0.83197
0.56842 0.2143 0.56263 0.828
0.56822 0.21328 0.55738 0.82404
0.57072 0.21327 0.55479 0.82401
0.5729 0.21315 0.55189 0.82355
0.57506 0.21303 0.54899 0.82308
0.57752 0.21302 0.54637 0.82306
0.57296 0.21044 0.53717 0.81309
0.56824 0.20783 0.52795 0.80301
0.57923 0.21097 0.53331 0.81513
0.57734 0.20941 0.52676 0.8091
0.57687 0.20838 0.52158 0.80514
0.57852 0.20813 0.51834 0.80417
0.58012 0.20787 0.51507 0.80314
0.57956 0.20684 0.50991 0.79918
0.58189 0.20685 0.50731 0.79921
0.57977 0.20529 0.50087 0.79319
0.58503 0.20635 0.50082 0.79729
nan nan nan -inf
nan nan nan -inf
nan nan nan -inf
nan nan nan -inf
nan nan nan -inf
nan nan nan -inf
nan nan nan -inf
nan nan nan -inf
nan nan nan -inf
nan nan nan -inf
nan nan nan -inf
nan nan nan -inf
nan nan nan -inf
nan nan nan -inf
-1.1767 0.42356 1.0145 1.6103
-1.1724 0.42369 1.0201 1.6108
-1.1703 0.4246 1.0276 1.6142
-1.1765 0.42855 1.0425 1.6293
-1.1789 0.43117 1.0542 1.6392
-1.1877 0.43616 1.0718 1.6582
-1.1943 0.44037 1.0875 1.6742
-1.195 0.44247 1.0981 1.6822
-1.1936 0.44378 1.1068 1.6872
-1.1956 0.44641 1.1188 1.6972
-1.2045 0.45165 1.1374 1.7171
-1.2077 0.45481 1.1508 1.7291
-1.2063 0.45625 1.1599 1.7346
-1.2118 0.46032 1.1757 1.75
-1.2064 0.46028 1.1811 1.7499
-1.2032 0.46111 1.1887 1.7531
-1.2152 0.46781 1.2115 1.7785
-1.2154 0.47004 1.2227 1.787
-1.214 0.47162 1.2324 1.793
-1.2121 0.47306 1.2416 1.7985
-1.2121 0.47528 1.253 1.8069
-1.2065 0.47529 1.2584 1.807
-1.2034 0.47633 1.2667 1.8109
-1.1996 0.47711 1.2742 1.8139
-1.1938 0.47711 1.2796 1.8139
-1.1854 0.47607 1.2822 1.8099
-1.1835 0.47763 1.2917 1.8159
-1.1822 0.47946 1.3021 1.8228
-1.1776 0.48 1.3088 1.8249
-1.1719 0.48012 1.3145 1.8253
-1.1656 0.47997 1.3194 1.8248
-1.1616 0.48077 1.3268 1.8278
-1.1556 0.48077 1.3321 1.8278
-1.1517 0.48168 1.3398 1.8313
-1.1522 0.48443 1.3527 1.8417
-1.1461 0.48443 1.3579 1.8417
-1.1399 0.48444 1.3631 1.8418
-1.1418 0.48786 1.3779 1.8548
-1.1342 0.4873 1.3814 1.8526
-1.128 0.48731 1.3866 1.8527
-1.1235 0.4881 1.3939 1.8557
-1.119 0.4889 1.4013 1.8587
-1.1144 0.48965 1.4085 1.8616
-1.1092 0.49018 1.415 1.8636
-1.1046 0.49097 1.4224 1.8666
-1.0981 0.49098 1.4273 1.8666
-1.0922 0.49123 1.433 1.8676
-1.0851 0.49095 1.4371 1.8665
-1.0844 0.49359 1.4498 1.8765
-1.0807 0.4949 1.4585 1.8815
-1.0753 0.49544 1.465 1.8836
-1.0706 0.49634 1.4725 1.887
-1.0704 0.49935 1.4863 1.8985
-1.0636 0.49936 1.4912 1.8985
-1.0608 0.5012 1.5015 1.9055
-1.0545 0.50145 1.507 1.9064
-1.0477 0.50144 1.5117 1.9064
-1.0425 0.50223 1.5188 1.9094
-1.034 0.50145 1.5212 1.9064
-1.0271 0.50145 1.5258 1.9064
-1.0284 0.50551 1.5429 1.9219
-1.0211 0.50537 1.5471 1.9213
-1.0173 0.50695 1.5565 1.9273
-1.0134 0.50853 1.566 1.9334
-1.0115 0.51117 1.5787 1.9434
-1.0139 0.51602 1.5983 1.9618
-1.01 0.51771 1.6081 1.9683
-2.371 1.2242 3.8134 4.6543
-2.3538 1.2242 3.8241 4.6543
-2.3365 1.2242 3.8347 4.6543
-2.3544 1.2429 3.9038 4.7252
-1.833 0.97493 3.0705 3.7065
-1.8252 0.97822 3.0892 3.719
-1.7936 0.96872 3.0673 3.6829
-1.7764 0.96691 3.0696 3.676
-1.7597 0.96535 3.0727 3.6701
-1.7448 0.96484 3.079 3.6682
-1.7315 0.9652 3.088 3.6695
-1.72 0.96657 3.1002 3.6747
-1.7072 0.96727 3.1102 3.6774
-1.6937 0.96759 3.1189 3.6786
-1.6782 0.9668 3.124 3.6756
-1.6603 0.96465 3.1246 3.6674
-1.6452 0.9641 3.1302 3.6653
-1.6294 0.96313 3.1345 3.6617
-1.6163 0.96377 3.1439 3.6641
-1.5996 0.96229 3.1464 3.6585
-1.5857 0.96247 3.1541 3.6591
-1.5673 0.95994 3.153 3.6495
-1.5547 0.96103 3.1636 3.6537
-1.5402 0.9609 3.1702 3.6532
-1.523 0.9591 3.1712 3.6463
-1.5089 0.95928 3.1786 3.647
-1.4952 0.95967 3.1867 3.6485
-1.4801 0.95928 3.1921 3.647
-1.4643 0.95839 3.1959 3.6437
-1.4498 0.95835 3.2023 3.6435
-1.4345 0.95783 3.2071 3.6415
-1.4189 0.95712 3.2111 3.6388
-1.4022 0.95559 3.2124 3.633
-1.3893 0.95673 3.2225 3.6373
-1.3761 0.95774 3.2322 3.6412
-1.3583 0.95551 3.2308 3.6327
-1.343 0.95501 3.2353 3.6308
-1.328 0.95475 3.2404 3.6298
-1.317 0.95742 3.2555 3.6399
-1.3005 0.9561 3.2569 3.6349
-1.2842 0.95499 3.259 3.6307
-1.2697 0.95514 3.2652 3.6313
-1.2571 0.95679 3.2766 3.6376
-1.242 0.95662 3.2817 3.6369
-1.2259 0.95562 3.2838 3.6331
-1.2108 0.9555 3.2889 3.6326
-1.1969 0.95626 3.297 3.6355
-1.1814 0.95577 3.3007 3.6337
-1.1631 0.953 3.2964 3.6231
-1.1464 0.95157 3.2967 3.6177
-1.1291 0.94954 3.2948 3.61
-1.1149 0.95019 3.3021 3.6125
-1.0983 0.94873 3.302 3.6069
-1.0894 0.95405 3.3255 3.6271
-1.079 0.95818 3.3448 3.6428
-1.0585 0.95336 3.3328 3.6245
-1.3556 1.2385 4.336 4.7088
-1.3326 1.2354 4.331 4.6968
-1.3119 1.2343 4.3333 4.6928
-1.2914 1.2336 4.3364 4.6898
-1.2696 1.2315 4.3348 4.6818
-1.27 1.2511 4.4099 4.7566
-1.2485 1.2496 4.41 4.7506
-1.2285 1.2496 4.4156 4.7506
-1.2067 1.2477 4.4146 4.7436
-1.1865 1.2475 4.4191 4.7426
-1.1616 1.2422 4.4058 4.7226
-1.1417 1.2422 4.411 4.7226
-1.1184 1.2385 4.403 4.7087
-1.0973 1.2372 4.4034 4.7037
-1.0758 1.2354 4.4017 4.6967
-1.0525 1.2314 4.3925 4.6817
-1.0319 1.2306 4.3944 4.6787
-1.0108 1.2291 4.3934 4.6727
-0.99003 1.228 4.3941 4.6687
-0.97015 1.228 4.3986 4.6687
-0.95004 1.2277 4.402 4.6677
-0.94424 1.2464 4.4731 4.7385
-0.92341 1.2456 4.4745 4.7355
-0.90298 1.2453 4.4777 4.7345
-0.88142 1.2435 4.4751 4.7275
-0.86208 1.2448 4.4838 4.7325
-0.8409 1.2435 4.4829 4.7275
-0.81975 1.2422 4.4819 4.7226
-0.79744 1.239 4.4742 4.7106
-0.77605 1.2372 4.4711 4.7036
-0.75534 1.2364 4.4717 4.7006
-0.73479 1.2359 4.4732 4.6986
-0.71425 1.2353 4.4745 4.6966
-0.69401 1.2353 4.4777 4.6966
-0.67346 1.2348 4.4789 4.6946
-0.65292 1.2343 4.48 4.6926
-0.63252 1.234 4.482 4.6916
-0.61211 1.2338 4.4838 4.6906
-0.59082 1.2317 4.4789 4.6826
-0.57007 1.2306 4.4777 4.6786
-0.54958 1.2301 4.4783 4.6766
-0.52898 1.2293 4.4779 4.6736
-0.50807 1.2277 4.4745 4.6676
-0.48783 1.2277 4.4767 4.6676
-0.46758 1.2277 4.4789 4.6676
-0.44722 1.2275 4.48 4.6666
-0.42678 1.2269 4.4801 4.6646
-0.40494 1.2222 4.4647 4.6466
-0.3921 1.2456 4.5518 4.7354
-0.37049 1.2421 4.5411 4.7224
-0.34995 1.2421 4.5427 4.7224
-0.32933 1.2419 4.5433 4.7214
-0.30878 1.2419 4.5447 4.7214
-0.28829 1.2421 4.547 4.7224
-0.26766 1.2419 4.5473 4.7214
-0.24709 1.2419 4.5485 4.7214
-0.22652 1.2419 4.5496 4.7214
-0.2059 1.2416 4.5496 4.7204
-0.18532 1.2416 4.5505 4.7204
-0.16474 1.2416 4.5512 4.7204
-0.14415 1.2416 4.5519 4.7204
-0.12328 1.2387 4.5419 4.7094
-0.10282 1.2398 4.5463 4.7134
-0.082261 1.2398 4.5467 4.7134
-0.061632 1.2385 4.5422 4.7085
-0.041133 1.2398 4.5473 4.7135
-0.020567 1.2398 4.5474 4.7135
0 1.2398 4.5475 4.7135
0.020536 1.2379 4.5407 4.7065
0.041097 1.2387 4.5434 4.7095
0.061644 1.2387 4.5432 4.7095
0.08219 1.2387 4.5429 4.7094
0.10295 1.2414 4.5521 4.7194
0.12354 1.2414 4.5516 4.7194
0.14412 1.2414 4.551 4.7194
0.1647 1.2414 4.5503 4.7194
0.18528 1.2414 4.5495 4.7194
0.20603 1.2424 4.5525 4.7234
0.22724 1.2458 4.564 4.7364
0.24788 1.2458 4.5629 4.7364
0.26851 1.2458 4.5618 4.7364
0.28914 1.2458 4.5605 4.7364
0.30976 1.2458 4.5591 4.7364
0.33038 1.2458 4.5577 4.7364
0.35099 1.2458 4.5562 4.7364
0.3719 1.2469 4.5584 4.7404
0.39251 1.2469 4.5566 4.7404
0.40712 1.2288 4.4887 4.6716
0.42741 1.2288 4.4868 4.6716
0.44761 1.2285 4.4838 4.6706
0.46788 1.2285 4.4818 4.6706
0.48919 1.2311 4.4892 4.6806
0.50949 1.2311 4.4869 4.6806
0.52977 1.2311 4.4846 4.6806
0.55017 1.2314 4.4831 4.6816
0.57165 1.234 4.4901 4.6916
0.59221 1.2346 4.4894 4.6936
0.6125 1.2346 4.4867 4.6936
0.63306 1.2351 4.4858 4.6956
0.65445 1.2372 4.4905 4.7036
0.67518 1.238 4.4904 4.7066
0.69563 1.2382 4.4882 4.7076
0.71714 1.2403 4.4926 4.7156
0.73761 1.2406 4.4903 4.7166
0.75791 1.2406 4.4869 4.7166
0.77835 1.2409 4.4844 4.7176
0.80049 1.2438 4.4913 4.7286
0.82097 1.244 4.4885 4.7295
0.84161 1.2445 4.4867 4.7315
0.8619 1.2445 4.4828 4.7315
0.88328 1.2461 4.4846 4.7375
0.90546 1.2487 4.49 4.7475
0.92595 1.249 4.4868 4.7485
0.94782 1.2511 4.4901 4.7565
0.95187 1.2301 4.4105 4.6767
0.97305 1.2317 4.4118 4.6827
0.99448 1.2335 4.4139 4.6897
1.0149 1.2341 4.4112 4.6917
1.0386 1.2385 4.4226 4.7087
1.059 1.2391 4.4197 4.7107
1.0794 1.2396 4.4167 4.7127
1.1001 1.2404 4.4146 4.7157
1.12 1.2404 4.4096 4.7157
1.1402 1.2406 4.4054 4.7166
1.1614 1.2419 4.4049 4.7216
1.1813 1.2419 4.3996 4.7216
1.2011 1.2419 4.3942 4.7216
1.2187 1.2396 4.3803 4.7126
1.2382 1.2393 4.3738 4.7116
1.246 1.2275 4.3266 4.6668
1.2702 1.232 4.3367 4.6838
1.2898 1.232 4.3309 4.6838
1.3093 1.232 4.325 4.6838
1.3289 1.232 4.319 4.6838
1.3478 1.2314 4.3111 4.6818
1.3623 1.227 4.2893 4.6647
0.4238 0.37633 1.3137 1.4307
0.40845 0.3577 1.2468 1.3599
0.41378 0.35743 1.244 1.3589
0.41539 0.35401 1.2303 1.3459
0.41626 0.35006 1.2147 1.3309
0.42143 0.3498 1.2119 1.3299
0.42401 0.34743 1.2017 1.3209
0.42554 0.34427 1.1889 1.3089
0.42729 0.34138 1.177 1.2979
0.4316 0.34058 1.1723 1.2948
0.43116 0.33611 1.155 1.2778
0.4357 0.33558 1.1512 1.2758
0.4364 0.33216 1.1375 1.2628
0.4402 0.33115 1.1321 1.259
0.44319 0.32957 1.1247 1.253
0.44326 0.32589 1.1101 1.239
0.44574 0.32404 1.1018 1.232
0.44742 0.32167 1.0918 1.2229
0.44865 0.31904 1.0808 1.2129
0.45353 0.31904 1.0788 1.2129
0.45651 0.31772 1.0723 1.2079
0.45601 0.31404 1.0578 1.1939
0.45815 0.31224 1.0496 1.1871
0.45977 0.31013 1.0405 1.1791
0.46446 0.31013 1.0384 1.179
0.46796 0.30933 1.0336 1.176
0.46137 0.30197 1.0069 1.148
0.46389 0.30065 1.0005 1.143
0.46799 0.30038 0.99747 1.142
0.47249 0.30038 0.99533 1.142
0.47455 0.29884 0.98809 1.1361
0.4731 0.29516 0.97378 1.1221
0.4775 0.29515 0.97162 1.1221
0.48145 0.29489 0.96858 1.1211
0.48322 0.29331 0.96121 1.1151
0.48756 0.2933 0.959 1.1151
0.48618 0.2899 0.94569 1.1022
0.4847 0.2865 0.9324 1.0892
0.48801 0.28597 0.92848 1.0872
0.4922 0.28596 0.92625 1.0872
0.4845 0.27912 0.90191 1.0612
0.48719 0.27833 0.89716 1.0582
0.49057 0.27795 0.89372 1.0567
0.49487 0.2781 0.89197 1.0573
0.49701 0.27704 0.88634 1.0533
0.49815 0.27546 0.87904 1.0473
0.50164 0.27519 0.87593 1.0462
0.49737 0.27072 0.85945 1.0292
0.50274 0.27152 0.85973 1.0323
0.50567 0.27101 0.85583 1.0303
0.50607 0.26917 0.84773 1.0233
0.50839 0.26837 0.84294 1.0203
0.51069 0.26758 0.83815 1.0173
0.51273 0.26668 0.833 1.0139
0.51015 0.2634 0.82048 1.0014
0.51385 0.2634 0.81815 1.0014
0.5165 0.26287 0.81418 0.99938
0.51861 0.26208 0.80938 0.99637
0.51915 0.26051 0.80221 0.99042
0.52227 0.26026 0.79909 0.98947
0.52428 0.25947 0.7943 0.98646
0.52304 0.2571 0.78468 0.97744
0.52281 0.25525 0.77669 0.97043
0.52255 0.25343 0.76878 0.96348
0.52113 0.25107 0.75929 0.95453
0.52455 0.25107 0.75691 0.95452
0.52686 0.25054 0.75294 0.9525
0.52858 0.24974 0.74817 0.94949
0.53086 0.24923 0.74424 0.94754
0.53087 0.24767 0.73718 0.94159
0.53192 0.24661 0.73163 0.93757
0.53464 0.24634 0.72843 0.93656
0.53423 0.24465 0.72101 0.93011
0.53665 0.24427 0.71747 0.92867
0.53756 0.24321 0.71194 0.92465
0.54017 0.24294 0.70872 0.92363
0.53748 0.24031 0.69861 0.91362
0.54131 0.24061 0.69704 0.91475
0.53611 0.23692 0.68394 0.90073
0.53859 0.23665 0.68074 0.89971
0.54165 0.23665 0.67828 0.89969
0.5447 0.23664 0.67581 0.89967
0.54418 0.2351 0.66894 0.8938
0.54718 0.23509 0.66646 0.89378
0.5471 0.23377 0.66025 0.88876
0.54945 0.2335 0.65702 0.88774
0.55063 0.23275 0.6524 0.88487
0.55043 0.23143 0.64622 0.87985
0.55333 0.23142 0.64371 0.87983
0.54738 0.22773 0.63098 0.86581
0.5503 0.22776 0.62858 0.86592
0.55184 0.22723 0.62463 0.8639
0.55465 0.22723 0.62211 0.86388
0.5562 0.22671 0.61819 0.86193
0.55837 0.22646 0.61499 0.86097
0.55396 0.22356 0.60462 0.84995
0.55377 0.22239 0.59895 0.84549
0.55419 0.22148 0.594 0.84203
0.55686 0.22147 0.59147 0.84201
0.55752 0.22068 0.58683 0.83898
0.56558 0.22281 0.58994 0.84709
0.56688 0.22228 0.58598 0.84506
0.56344 0.2199 0.57718 0.83604
0.56337 0.21886 0.5719 0.83207
0.56189 0.21729 0.56526 0.82611
0.56374 0.21702 0.56202 0.82509
0.56703 0.21731 0.56021 0.82619
0.56954 0.21731 0.55762 0.82616
0.57066 0.21677 0.55368 0.82413
0.57044 0.21575 0.54849 0.82024
0.57499 0.21653 0.54788 0.82321
0.56841 0.21314 0.53673 0.81031
0.57991 0.21652 0.54264 0.82318
0.57323 0.21313 0.53155 0.81028
0.57561 0.21312 0.52893 0.81025
0.57552 0.21221 0.52407 0.80679
0.57827 0.21235 0.52181 0.80733
0.57557 0.2105 0.51467 0.8003
0.58045 0.21143 0.51433 0.80384
0.57808 0.20973 0.50758 0.79737
0.58035 0.20973 0.50494 0.79735
0.58448 0.21039 0.50391 0.79988
0.5886 0.21106 0.50284 0.8024
nan nan nan -inf
nan nan nan -inf
nan nan nan -inf
nan nan nan -inf
nan nan nan -inf
nan nan nan -inf
nan nan nan -inf
nan nan nan -inf
nan nan nan -inf
nan nan nan -inf
nan nan nan -inf
nan nan nan -inf
nan nan nan -inf
nan nan nan -inf
-1.1735 0.4293 1.0096 1.6064
-1.1726 0.43065 1.0181 1.6115
-1.177 0.43398 1.0313 1.6239
-1.1907 0.44078 1.0529 1.6494
-1.1859 0.44079 1.0583 1.6494
-1.186 0.44264 1.0681 1.6563
-1.1948 0.44772 1.0858 1.6754
-1.1962 0.45013 1.0971 1.6844
-1.1933 0.45091 1.1044 1.6873
-1.1933 0.45279 1.1144 1.6943
-1.1931 0.45465 1.1244 1.7013
-1.2075 0.46212 1.1483 1.7292
-1.2169 0.46774 1.1678 1.7503
-1.213 0.46826 1.1746 1.7522
-1.209 0.46879 1.1814 1.7542
-1.2187 0.47467 1.2018 1.7762
-1.2331 0.48243 1.227 1.8052
-1.2193 0.47919 1.2243 1.7931
-1.2192 0.48133 1.2353 1.8011
-1.2156 0.48214 1.2429 1.8042
-1.2089 0.48173 1.2473 1.8026
-1.2022 0.48132 1.2517 1.8011
-1.1986 0.48213 1.2593 1.8041
-1.2008 0.48532 1.2731 1.8161
-1.1943 0.48505 1.2778 1.815
-1.1944 0.48746 1.2895 1.8241
-1.1899 0.488 1.2964 1.8261
-1.1762 0.48476 1.2931 1.814
-1.1774 0.48771 1.3063 1.825
-1.1715 0.48772 1.3117 1.825
-1.1661 0.48797 1.3176 1.826
-1.1671 0.4909 1.3308 1.8369
-1.1617 0.49117 1.3369 1.8379
-1.1569 0.49171 1.3436 1.84
-1.1483 0.49061 1.3458 1.8359
-1.1478 0.49302 1.3576 1.8449
-1.1478 0.4957 1.3702 1.8549
-1.1416 0.4957 1.3754 1.8549
-1.1353 0.49567 1.3805 1.8548
-1.1315 0.49674 1.3886 1.8588
-1.1252 0.49675 1.3937 1.8588
-1.1237 0.49889 1.4048 1.8668
-1.1149 0.49781 1.4068 1.8628
-1.1127 0.49967 1.4171 1.8697
-1.1068 0.49994 1.4229 1.8708
-1.1004 0.49994 1.4279 1.8708
-1.0939 0.49995 1.4329 1.8708
-1.0908 0.50151 1.4424 1.8767
-1.0854 0.50205 1.4488 1.8787
-1.0869 0.5058 1.4646 1.8927
-1.0803 0.5058 1.4695 1.8927
-1.0736 0.50581 1.4744 1.8927
-1.068 0.50631 1.4807 1.8946
-1.0613 0.50631 1.4855 1.8946
-1.0568 0.50739 1.4935 1.8986
-1.0534 0.50899 1.503 1.9046
-1.0471 0.50925 1.5085 1.9056
-1.0407 0.5095 1.514 1.9065
-1.0393 0.51218 1.5267 1.9166
-1.0335 0.51272 1.533 1.9186
-1.026 0.51245 1.5368 1.9176
-1.0227 0.51431 1.5471 1.9245
-1.0172 0.5151 1.5541 1.9275
-1.0139 0.51697 1.5643 1.9345
-1.0083 0.51778 1.5713 1.9375
-1.0069 0.52072 1.5848 1.9485
-1.0089 0.52552 1.604 1.9665
-2.3387 1.227 3.7558 4.5914
-2.3217 1.227 3.7663 4.5914
-2.3046 1.227 3.7768 4.5914
-2.2845 1.2254 3.7823 4.5855
-1.8361 0.99232 3.0712 3.7132
-1.8239 0.99327 3.0824 3.7168
-1.7992 0.98736 3.0723 3.6947
-1.7771 0.98288 3.0664 3.6779
-1.763 0.98275 3.074 3.6774
-1.7471 0.98165 3.0785 3.6733
-1.7334 0.98177 3.0868 3.6738
-1.7177 0.9808 3.0915 3.6701
-1.7061 0.98221 3.1037 3.6754
-1.6909 0.98156 3.1094 3.673
-1.6734 0.97959 3.1107 3.6656
-1.6612 0.98066 3.1217 3.6696
-1.6433 0.97843 3.1221 3.6613
-1.6275 0.97744 3.1263 3.6576
-1.6119 0.97659 3.1309 3.6544
-1.5981 0.97687 3.1391 3.6554
-1.5831 0.97637 3.1447 3.6535
-1.5674 0.97546 3.1489 3.6501
-1.5506 0.97386 3.1507 3.6442
-1.5351 0.97313 3.1554 3.6414
-1.5216 0.97362 3.1639 3.6433
-1.5068 0.97332 3.1698 3.6422
-1.4926 0.97342 3.1769 3.6425
-1.4779 0.97325 3.1831 3.6419
-1.462 0.97227 3.1865 3.6382
-1.4468 0.97176 3.1914 3.6363
-1.4318 0.97138 3.1967 3.6349
-1.4161 0.97053 3.2003 3.6317
-1.4027 0.97132 3.2093 3.6347
-1.3879 0.97114 3.215 3.634
-1.3725 0.97056 3.2194 3.6318
-1.3593 0.97159 3.229 3.6357
-1.3426 0.97006 3.23 3.6299
-1.3295 0.97118 3.2398 3.6341
-1.3137 0.97034 3.2429 3.631
-1.2969 0.96882 3.2438 3.6253
-1.2826 0.96911 3.2506 3.6264
-1.2661 0.96772 3.2517 3.6212
-1.2531 0.96906 3.2619 3.6262
-1.2386 0.96933 3.2685 3.6272
-1.2226 0.9684 3.2709 3.6237
-1.2077 0.96834 3.2762 3.6235
-1.1934 0.96871 3.2829 3.6249
-1.1803 0.97025 3.2935 3.6307
-1.1612 0.96672 3.2868 3.6175
-1.1445 0.96521 3.2869 3.6118
-1.1316 0.96691 3.2978 3.6182
-1.1151 0.96557 3.2983 3.6131
-1.0997 0.96517 3.302 3.6117
-1.0862 0.96647 3.3114 3.6165
-1.0827 0.97688 3.352 3.6554
-1.063 0.97273 3.3426 3.6399
-1.3343 1.2386 4.2624 4.6349
-1.3136 1.2373 4.2638 4.6299
-1.2931 1.2362 4.266 4.6259
-1.2694 1.232 4.2571 4.6099
-1.2696 1.2512 4.3292 4.6818
-1.2497 1.2509 4.334 4.6808
-1.229 1.2498 4.3359 4.6768
-1.2058 1.2461 4.3284 4.6628
-1.1823 1.2421 4.3199 4.6478
-1.1598 1.2389 4.314 4.6358
-1.14 1.2386 4.3183 4.6348
-1.1204 1.2386 4.3234 4.6348
-1.0973 1.2346 4.3145 4.6198
-1.0756 1.2322 4.311 4.6108
-1.0561 1.2322 4.3158 4.6108
-1.0363 1.2319 4.3196 4.6098
-1.0163 1.2314 4.3224 4.6078
-0.9965 1.2311 4.326 4.6068
-0.97584 1.2298 4.3258 4.6019
-0.95312 1.2258 4.316 4.5869
-0.95002 1.2474 4.3965 4.6677
-0.92672 1.2428 4.3847 4.6507
-0.90666 1.2426 4.3879 4.6497
-0.88545 1.2407 4.3854 4.6427
-0.86559 1.2407 4.3893 4.6427
-0.8457 1.2407 4.3932 4.6427
-0.8258 1.2407 4.397 4.6427
-0.80571 1.2404 4.3997 4.6417
-0.78257 1.2354 4.3853 4.6227
-0.7627 1.2354 4.3888 4.6227
-0.74282 1.2354 4.3922 4.6227
-0.72293 1.2354 4.3956 4.6227
-0.70302 1.2354 4.3988 4.6227
-0.68294 1.2351 4.401 4.6217
-0.66229 1.2338 4.3993 4.6167
-0.64237 1.2338 4.4022 4.6167
-0.62175 1.2324 4.4003 4.6117
-0.60182 1.2324 4.4031 4.6118
-0.58049 1.2295 4.3953 4.6008
-0.56119 1.2308 4.4026 4.6058
-0.54125 1.2308 4.4051 4.6058
-0.52074 1.2295 4.4027 4.6008
-0.50069 1.2292 4.4041 4.5998
-0.47959 1.2263 4.3958 4.5888
-0.45948 1.2258 4.396 4.5868
-0.44722 1.2471 4.4746 4.6666
-0.42677 1.2466 4.4746 4.6646
-0.40494 1.2418 4.4593 4.6466
-0.38466 1.2415 4.4601 4.6456
-0.36446 1.2415 4.4618 4.6456
-0.34403 1.2407 4.4605 4.6426
-0.32411 1.2418 4.4659 4.6466
-0.30363 1.2407 4.4634 4.6426
-0.2825 1.2367 4.4504 4.6276
-0.26229 1.2364 4.4506 4.6266
-0.24218 1.2367 4.4527 4.6276
-0.22202 1.2367 4.4538 4.6276
-0.20216 1.2385 4.4615 4.6346
-0.18195 1.2385 4.4624 4.6346
-0.16174 1.2385 4.4631 4.6346
-0.14153 1.2385 4.4638 4.6346
-0.12108 1.2361 4.4557 4.6256
-0.10091 1.2361 4.4562 4.6256
-0.080903 1.2388 4.4663 4.6356
-0.060679 1.2388 4.4666 4.6356
-0.040454 1.2388 4.4668 4.6356
-0.020228 1.2388 4.467 4.6356
0 1.2383 4.4651 4.6336
0.020192 1.2367 4.4593 4.6276
0.040435 1.2383 4.4649 4.6336
0.060652 1.2383 4.4647 4.6336
0.080954 1.2396 4.4692 4.6386
0.10119 1.2396 4.4688 4.6386
0.12161 1.2415 4.475 4.6456
0.14187 1.2415 4.4744 4.6456
0.16213 1.2415 4.4737 4.6456
0.1825 1.2423 4.4758 4.6486
0.20311 1.2444 4.4827 4.6566
0.2236 1.2455 4.4855 4.6606
0.24391 1.2455 4.4845 4.6606
0.26421 1.2455 4.4833 4.6606
0.28451 1.2455 4.4821 4.6606
0.3048 1.2455 4.4808 4.6606
0.32537 1.2466 4.4832 4.6646
0.34581 1.2471 4.4836 4.6666
0.3665 1.2484 4.4868 4.6716
0.38681 1.2484 4.4851 4.6716
0.40712 1.2484 4.4833 4.6716
0.42741 1.2484 4.4814 4.6716
0.4411 1.23 4.4134 4.6028
0.46138 1.2308 4.4142 4.6058
0.4821 1.2327 4.4188 4.6128
0.5021 1.2327 4.4165 4.6128
0.52198 1.2324 4.4133 4.6118
0.54172 1.2319 4.4089 4.6098
0.56192 1.2324 4.4084 4.6118
0.58188 1.2324 4.4058 4.6118
0.60352 1.2359 4.4155 4.6247
0.62404 1.237 4.4165 4.6287
0.64431 1.2375 4.4156 4.6307
0.6643 1.2375 4.4126 4.6307
0.68427 1.2375 4.4095 4.6307
0.70301 1.2354 4.3988 4.6227
0.72292 1.2354 4.3956 4.6227
0.74282 1.2354 4.3922 4.6227
0.766 1.2407 4.4078 4.6427
0.78595 1.2407 4.4043 4.6427
0.80693 1.2423 4.4064 4.6487
0.8274 1.2431 4.4055 4.6517
0.84789 1.2439 4.4046 4.6547
0.86819 1.2444 4.4026 4.6567
0.88945 1.2463 4.4052 4.6637
0.91095 1.2485 4.4087 4.6717
0.9319 1.2498 4.4092 4.6767
0.93622 1.2293 4.3326 4.5999
0.95582 1.2293 4.3283 4.5999
0.97817 1.2327 4.3361 4.6128
0.99887 1.2341 4.3363 4.6178
1.0194 1.2351 4.3355 4.6218
1.0401 1.2365 4.3355 4.6268
1.0604 1.2373 4.3336 4.6298
1.0819 1.2394 4.3362 4.6378
1.1032 1.2413 4.3378 4.6448
1.1231 1.2415 4.3337 4.6458
1.1429 1.2418 4.3295 4.6468
1.1665 1.2461 4.3392 4.6628
1.1864 1.2463 4.3348 4.6638
1.206 1.2463 4.3293 4.6638
1.2264 1.2471 4.3266 4.6668
1.2492 1.2503 4.3321 4.6788
1.249 1.2309 4.2591 4.6059
1.2713 1.2338 4.2635 4.6169
1.292 1.2352 4.2623 4.6219
1.3141 1.2378 4.2656 4.6319
1.3334 1.2378 4.2596 4.6319
1.3483 1.2338 4.2398 4.6169
0.41613 0.37545 1.2883 1.4049
0.40844 0.36342 1.2452 1.3599
0.41377 0.36315 1.2424 1.3589
0.41789 0.36186 1.2361 1.3541
0.41817 0.35731 1.2187 1.337
0.42146 0.35544 1.2104 1.33
0.42437 0.3533 1.2012 1.322
0.42915 0.35276 1.1974 1.32
0.43259 0.35116 1.19 1.314
0.42897 0.34394 1.1637 1.287
0.43288 0.34287 1.1581 1.283
0.43368 0.33939 1.1444 1.27
0.43644 0.33752 1.1361 1.263
0.43918 0.33569 1.128 1.2561
0.43756 0.33061 1.1089 1.2371
0.44115 0.32954 1.1034 1.2331
0.44613 0.32954 1.1013 1.2331
0.44782 0.32713 1.0913 1.2241
0.4498 0.32499 1.0821 1.2161
0.45394 0.32445 1.0783 1.2141
0.45541 0.32204 1.0682 1.2051
0.4549 0.3183 1.0538 1.1911
0.45818 0.31727 1.0483 1.1872
0.46096 0.31593 1.0418 1.1822
0.4637 0.31459 1.0353 1.1772
0.46281 0.31085 1.0209 1.1632
0.46582 0.30978 1.0153 1.1592
0.47 0.30951 1.0123 1.1582
0.47048 0.30683 1.0014 1.1482
0.47296 0.30551 0.99495 1.1432
0.47624 0.30473 0.99025 1.1403
0.47945 0.30392 0.98548 1.1373
0.48305 0.30339 0.98156 1.1353
0.48018 0.29884 0.96468 1.1183
0.48064 0.29643 0.95474 1.1092
0.47865 0.29257 0.94016 1.0948
0.48226 0.29219 0.93674 1.0934
0.48338 0.29031 0.92856 1.0864
0.48578 0.28924 0.92294 1.0823
0.48633 0.2871 0.91391 1.0743
0.48771 0.28549 0.9066 1.0683
0.49138 0.28524 0.90358 1.0674
0.48946 0.28178 0.89042 1.0544
0.49208 0.28098 0.88566 1.0514
0.49513 0.28044 0.88173 1.0494
0.49436 0.27777 0.87109 1.0394
0.49781 0.27749 0.86799 1.0384
0.50031 0.27671 0.86328 1.0354
0.50132 0.27512 0.85606 1.0295
0.50322 0.27405 0.85045 1.0255
0.50657 0.27378 0.84733 1.0245
0.51039 0.27377 0.84501 1.0245
0.51223 0.27272 0.83945 1.0205
0.51201 0.2706 0.8306 1.0126
0.51576 0.27059 0.82826 1.0125
0.51386 0.26765 0.81694 1.0015
0.51186 0.2647 0.80564 0.99052
0.51397 0.26392 0.80093 0.98757
0.51604 0.26313 0.79621 0.98463
0.51805 0.26232 0.79143 0.98161
0.52162 0.26232 0.78907 0.9816
0.52304 0.26125 0.78348 0.97758
0.52338 0.25966 0.77635 0.97163
0.52529 0.25887 0.77163 0.96869
0.5255 0.25726 0.76446 0.96267
0.52895 0.25726 0.76206 0.96266
0.53128 0.25672 0.75807 0.96064
0.53056 0.25473 0.7498 0.9532
0.52866 0.25221 0.73999 0.94376
0.532 0.2522 0.73757 0.94374
0.52738 0.24846 0.72424 0.92972
0.53064 0.24845 0.72183 0.9297
0.52824 0.24582 0.71179 0.91984
0.53087 0.24554 0.7086 0.91882
0.53406 0.24554 0.70618 0.9188
0.53725 0.24553 0.70374 0.91879
0.54042 0.24553 0.70128 0.91877
0.53834 0.24316 0.69208 0.9099
0.54086 0.24289 0.68887 0.90888
0.54396 0.24288 0.6864 0.90886
0.54224 0.24074 0.67789 0.90084
0.54261 0.23955 0.6721 0.8964
0.54233 0.2381 0.66556 0.89095
0.54349 0.23729 0.66085 0.88793
0.54462 0.23648 0.65615 0.88491
0.54885 0.23703 0.65519 0.88696
0.545 0.2341 0.64464 0.87601
0.54603 0.2333 0.63995 0.87299
0.54828 0.23302 0.63672 0.87197
0.55308 0.23384 0.63645 0.87501
0.55916 0.23519 0.6376 0.88006
0.56203 0.23518 0.63504 0.88004
0.55626 0.23158 0.62282 0.86658
0.56007 0.232 0.6214 0.86812
0.56286 0.23199 0.61884 0.8681
0.55652 0.22824 0.60633 0.85408
0.55802 0.22774 0.60246 0.85218
0.55744 0.22639 0.59639 0.84716
0.56012 0.22639 0.59385 0.84713
0.56349 0.22666 0.59203 0.84817
0.56419 0.22587 0.58741 0.84521
0.56481 0.22506 0.58276 0.84218
0.56478 0.22401 0.57747 0.83822
0.56673 0.22375 0.57424 0.83726
0.56591 0.22241 0.56824 0.83224
0.56646 0.22161 0.56366 0.82928
0.5656 0.22029 0.55773 0.82432
0.5681 0.22028 0.55515 0.82429
0.56856 0.21949 0.55058 0.82133
0.57176 0.21977 0.5487 0.82236
0.57276 0.2192 0.54469 0.82024
0.57669 0.21976 0.54348 0.82233
0.58063 0.22032 0.54224 0.82444
0.57457 0.21711 0.53174 0.81241
0.57695 0.2171 0.52911 0.81238
0.573 0.21472 0.52073 0.80349
0.5782 0.21578 0.52069 0.80746
0.58093 0.21593 0.51841 0.80799
0.57932 0.21447 0.51228 0.80252
0.58162 0.21446 0.50963 0.80249
0.58139 0.21353 0.5048 0.79902
0.58113 0.2126 0.49998 0.79555
0.57938 0.21114 0.49392 0.79007
nan nan nan -inf
nan nan nan -inf
nan nan nan -inf
nan nan nan -inf
nan nan nan -inf
nan nan nan -inf
nan nan nan -inf
nan nan nan -inf
nan nan nan -inf
nan nan nan -inf
nan nan nan -inf
nan nan nan -inf
nan nan nan -inf
nan nan nan -inf
-1.1703 0.43501 1.0047 1.6026
-1.1708 0.43691 1.0144 1.6096
-1.1706 0.43854 1.0235 1.6156
-1.1782 0.44315 1.0397 1.6326
-1.1957 0.45156 1.0648 1.6636
-1.1873 0.45019 1.067 1.6585
-1.1852 0.45127 1.0749 1.6625
-1.1839 0.45263 1.0835 1.6675
-1.1928 0.45792 1.1016 1.687
-1.1895 0.45858 1.1086 1.6894
-1.1964 0.46321 1.1252 1.7065
-1.2007 0.46686 1.1396 1.7199
-1.1958 0.46698 1.1453 1.7204
-1.2218 0.47921 1.1808 1.7654
-1.2147 0.47852 1.1847 1.7629
-1.2137 0.48027 1.1945 1.7693
-1.2165 0.48354 1.2082 1.7814
-1.2266 0.48977 1.2293 1.8043
-1.2177 0.48843 1.2315 1.7994
-1.2188 0.49111 1.2438 1.8093
-1.2151 0.49194 1.2514 1.8123
-1.2067 0.49084 1.2541 1.8083
-1.205 0.49246 1.2637 1.8142
-1.2006 0.49301 1.2706 1.8163
-1.1988 0.49463 1.2802 1.8222
-1.1916 0.49407 1.2842 1.8202
-1.1858 0.49408 1.2896 1.8202
-1.1818 0.49488 1.297 1.8232
-1.1779 0.49568 1.3045 1.8261
-1.1764 0.49759 1.3148 1.8331
-1.1718 0.49814 1.3216 1.8352
-1.1632 0.49704 1.324 1.8311
-1.1546 0.49595 1.3263 1.8271
-1.1511 0.49704 1.3345 1.8311
-1.151 0.4996 1.3466 1.8406
-1.1458 0.5 1.3529 1.842
-1.1402 0.50027 1.3588 1.843
-1.1402 0.50299 1.3714 1.8531
-1.1361 0.50393 1.3791 1.8565
-1.1295 0.50378 1.3838 1.856
-1.1251 0.5046 1.3912 1.859
-1.1206 0.50542 1.3985 1.862
-1.1142 0.50543 1.4036 1.862
-1.1107 0.50675 1.4123 1.8669
-1.1079 0.50838 1.4219 1.8729
