# .PCD v.6 - Point Cloud Data file format
FIELDS x y z range
SIZE 4 4 4 4
TYPE F F F F
COUNT 1 1 1 1
WIDTH 1631
HEIGHT 1
POINTS 1631
DATA ascii
-0.95478 0.52812 0.94122 1.441
-0.95166 0.52885 0.94699 1.443
-0.94227 0.52609 0.94648 1.4354
-0.94336 0.52919 0.9565 1.4439
-0.94604 0.53324 0.96826 1.4549
-0.93884 0.53174 0.96995 1.4509
-0.93753 0.53359 0.97773 1.4559
-0.94445 0.54017 0.99423 1.4739
-0.94422 0.54273 1.0034 1.4808
-0.93952 0.54274 1.0078 1.4809
-0.93914 0.54527 1.0169 1.4878
-0.93438 0.54528 1.0213 1.4878
-0.9296 0.54529 1.0257 1.4878
-0.92658 0.54635 1.0321 1.4907
-0.92175 0.54636 1.0364 1.4908
-0.91655 0.54617 1.0404 1.4902
-0.91806 0.55 1.052 1.5007
-0.8961 0.53975 1.0366 1.4727
-0.89123 0.53975 1.0408 1.4727
-0.89414 0.5445 1.0542 1.4857
-0.89635 0.54889 1.0669 1.4976
-0.88183 0.54303 1.0596 1.4817
-0.8789 0.5443 1.0663 1.4851
-0.87239 0.54337 1.0685 1.4826
-0.86096 0.53935 1.0647 1.4716
-0.86175 0.543 1.0759 1.4816
-0.8584 0.54409 1.0821 1.4845
-0.85333 0.5441 1.0862 1.4846
-0.84825 0.54411 1.0902 1.4846
-0.84477 0.54517 1.0963 1.4875
-0.83794 0.54408 1.098 1.4845
-0.83112 0.54299 1.0997 1.4815
-0.83258 0.54735 1.1125 1.4934
-0.82349 0.54479 1.1111 1.4865
-0.80948 0.53894 1.103 1.4705
-0.81056 0.54313 1.1154 1.4819
-0.80882 0.5455 1.1241 1.4884
-0.79654 0.54074 1.118 1.4754
-0.78916 0.53929 1.1187 1.4715
-0.78916 0.54291 1.13 1.4813
-0.78387 0.54292 1.1337 1.4814
-0.77856 0.54293 1.1373 1.4814
-0.75496 0.53011 1.114 1.4464
-0.74811 0.52896 1.1152 1.4433
-0.63582 0.45274 0.95746 1.2353
-0.63134 0.45275 0.96045 1.2353
-0.62684 0.45276 0.96342 1.2353
-0.64348 0.46816 0.99922 1.2774
-0.72274 0.52968 1.1339 1.4452
-0.71742 0.52969 1.1373 1.4453
-0.71209 0.5297 1.1407 1.4453
-0.70329 0.52712 1.1384 1.4382
-0.69744 0.52673 1.1409 1.4372
-0.69209 0.52674 1.1442 1.4372
-0.69341 0.53188 1.1586 1.4512
-0.68798 0.53189 1.1619 1.4513
-0.6914 0.5388 1.1802 1.4701
-0.68447 0.53771 1.1811 1.4671
-0.67893 0.53772 1.1843 1.4672
-0.67292 0.53736 1.1866 1.4662
-0.66733 0.53734 1.1897 1.4661
-0.66081 0.53659 1.1912 1.4641
-0.65478 0.53623 1.1935 1.4631
-0.64919 0.53624 1.1966 1.4631
-0.64358 0.53624 1.1996 1.4631
-1.0604 0.89133 1.9989 2.432
-1.1016 0.93422 2.1003 2.549
-1.0977 0.93936 2.117 2.563
-1.0878 0.93936 2.1222 2.5631
-1.0773 0.93895 2.1263 2.5619
-1.0674 0.93896 2.1314 2.5619
-1.0631 0.94409 2.148 2.576
-1.0674 0.95693 2.1823 2.611
-1.0628 0.96207 2.199 2.625
-1.0661 0.97451 2.2324 2.6589
-1.0651 0.98328 2.2576 2.6829
-1.0722 0.99978 2.3005 2.7279
-1.1011 1.0372 2.3917 2.8299
-1.1565 1.1006 2.5434 3.0029
-1.1446 1.1006 2.5488 3.0029
-1.1333 1.1013 2.5557 3.0048
-1.1019 1.0822 2.5167 2.9528
-1.0738 1.0661 2.4843 2.9088
-1.0432 1.047 2.4448 2.8569
-1.0205 1.0357 2.4231 2.8259
-1.0002 1.0265 2.4064 2.8009
-0.97623 1.0133 2.3801 2.7649
-0.96082 1.0089 2.3742 2.7528
-0.94968 1.0089 2.3787 2.7528
-0.95216 1.0236 2.4177 2.7928
-0.96945 1.0547 2.4959 2.8778
-1.1108 1.2233 2.9001 3.3378
-1.1044 1.2314 2.9244 3.3598
-1.0907 1.2314 2.9296 3.3598
-1.0936 1.2504 2.98 3.4117
-1.0787 1.2493 2.9824 3.4087
-1.0622 1.2464 2.9805 3.4007
-1.0445 1.242 2.9749 3.3887
-1.0299 1.2412 2.978 3.3867
-1.0153 1.2405 2.9811 3.3847
-0.99928 1.238 2.9796 3.3778
-0.98501 1.2376 2.9834 3.3768
-0.96785 1.2336 2.9783 3.3658
-0.97054 1.2551 3.0349 3.4246
-0.95212 1.2496 3.0261 3.4096
-0.72368 0.9642 2.3383 2.6308
-0.69985 0.9468 2.2995 2.5834
-0.67187 0.92319 2.2453 2.5189
-0.67476 0.94193 2.294 2.5701
-0.65205 0.92498 2.2558 2.5238
-0.63832 0.92045 2.2478 2.5114
-0.61264 0.89827 2.1965 2.4509
-0.60029 0.89522 2.1919 2.4426
-0.58224 0.88344 2.1658 2.4105
-0.57034 0.88075 2.162 2.4031
-0.55479 0.87225 2.1437 2.3799
-0.54032 0.8652 2.1289 2.3607
-0.52833 0.86192 2.1234 2.3518
-0.51497 0.85628 2.1119 2.3364
-0.50475 0.85575 2.113 2.3349
-0.49042 0.84812 2.0965 2.3141
-0.47944 0.84611 2.0938 2.3086
-0.46678 0.84099 2.0833 2.2947
-0.45643 0.83993 2.0829 2.2918
-0.44565 0.83805 2.0803 2.2866
-0.43775 0.84162 2.0913 2.2964
-0.42753 0.84081 2.0913 2.2942
-0.41721 0.8398 2.0907 2.2914
-0.4081 0.84124 2.0963 2.2953
-0.39703 0.83862 2.0916 2.2882
-0.38696 0.83808 2.0921 2.2867
-0.37742 0.83868 2.0954 2.2883
-0.36884 0.84155 2.1043 2.2962
-0.35875 0.84102 2.1047 2.2947
-0.34933 0.84212 2.1091 2.2977
-0.33921 0.84156 2.1093 2.2962
-0.33128 0.8466 2.1235 2.3099
-0.32076 0.84513 2.1214 2.3059
-0.3104 0.84401 2.12 2.3029
-0.3017 0.84752 2.1303 2.3125
-0.2917 0.8475 2.1316 2.3124
-0.28152 0.84696 2.1316 2.3109
-0.27209 0.84873 2.1374 2.3158
-0.26245 0.84998 2.1418 2.3192
-0.25357 0.85392 2.1529 2.3299
-0.24401 0.8558 2.1588 2.3351
-0.23341 0.85406 2.1556 2.3303
-0.22389 0.85634 2.1624 2.3365
-0.2144 0.85895 2.17 2.3436
-0.20417 0.85873 2.1704 2.343
-0.19463 0.86156 2.1785 2.3508
-0.1847 0.86291 2.1828 2.3544
-0.17502 0.86567 2.1906 2.362
-0.16562 0.87028 2.2031 2.3746
-0.15496 0.86846 2.1993 2.3696
-0.14478 0.86929 2.2021 2.3719
-0.13487 0.87193 2.2094 2.3791
-0.12423 0.87003 2.2052 2.3739
-0.11471 0.87629 2.2216 2.3909
-0.10427 0.87615 2.2218 2.3906
-0.094161 0.87905 2.2296 2.3985
-0.08371 0.87911 2.2302 2.3987
-0.07364 0.88379 2.2424 2.4114
-0.063244 0.88549 2.2471 2.4161
-0.052895 0.88866 2.2554 2.4247
-0.042477 0.89201 2.2641 2.4339
-0.031845 0.89164 2.2633 2.4328
-0.02127 0.89328 2.2676 2.4373
-0.010664 0.89566 2.2737 2.4438
0 0.89964 2.2839 2.4547
0.010744 0.90242 2.2909 2.4623
0.021552 0.90517 2.2978 2.4698
0.032388 0.90685 2.302 2.4743
0.043317 0.90968 2.309 2.4821
0.054177 0.91022 2.3101 2.4835
0.065439 0.91623 2.3251 2.4999
0.076354 0.91637 2.3251 2.5003
0.087789 0.92196 2.3389 2.5156
0.098705 0.92148 2.3372 2.5143
0.10981 0.92267 2.3398 2.5175
0.12093 0.92381 2.3421 2.5206
0.1341 0.93918 2.3805 2.5626
0.14485 0.93649 2.373 2.5552
0.15572 0.93494 2.3684 2.551
0.2244 1.2576 3.1848 3.4314
0.23996 1.2609 3.192 3.4404
0.25493 1.2609 3.1909 3.4404
0.26957 1.2594 3.1859 3.4364
0.28451 1.2594 3.1846 3.4364
0.29936 1.2591 3.1823 3.4354
0.31428 1.2591 3.1809 3.4354
0.32528 1.2441 3.1416 3.3946
0.34001 1.2441 3.14 3.3946
0.35473 1.2441 3.1384 3.3946
0.37086 1.2489 3.1487 3.4076
0.38596 1.25 3.1497 3.4106
0.40072 1.25 3.1478 3.4106
0.41548 1.25 3.1459 3.4105
0.43023 1.25 3.1439 3.4105
0.44497 1.25 3.1419 3.4105
0.46172 1.2555 3.1536 3.4255
0.47678 1.2562 3.1532 3.4275
0.49156 1.2562 3.1509 3.4275
0.50618 1.2558 3.1477 3.4265
0.52094 1.2558 3.1452 3.4265
0.53584 1.2562 3.1437 3.4275
0.5517 1.2587 3.1475 3.4345
0.56794 1.262 3.1531 3.4435
0.58272 1.262 3.1504 3.4435
0.59748 1.262 3.1477 3.4435
0.61224 1.262 3.1448 3.4435
0.61991 1.2478 3.1065 3.4047
0.63577 1.2504 3.1099 3.4116
0.65111 1.2518 3.1105 3.4156
0.66569 1.2518 3.1075 3.4156
0.67866 1.2489 3.097 3.4076
0.68931 1.2419 3.0765 3.3886
0.66448 1.1727 2.9019 3.1996
0.6518 1.1272 2.7864 3.0756
0.64778 1.0983 2.7118 2.9966
0.65564 1.0902 2.6888 2.9746
0.66644 1.0872 2.6785 2.9666
0.67693 1.0839 2.6672 2.9576
0.6864 1.0792 2.6523 2.9445
0.69527 1.0737 2.6355 2.9295
0.71008 1.0774 2.6414 2.9397
0.72245 1.0774 2.638 2.9397
0.73481 1.0774 2.6346 2.9397
0.74716 1.0774 2.6311 2.9397
0.76233 1.0814 2.6374 2.9507
0.80278 1.1206 2.7293 3.0577
0.90599 1.2449 3.0276 3.3966
0.92017 1.2449 3.0234 3.3966
0.93434 1.2449 3.019 3.3966
0.92894 1.2192 2.9524 3.3266
0.93205 1.2053 2.9145 3.2888
0.94225 1.2009 2.8995 3.2768
0.94767 1.1907 2.8703 3.2488
0.93597 1.1595 2.7908 3.1637
0.94095 1.1496 2.7626 3.1367
0.94902 1.1437 2.7441 3.1207
0.96064 1.1423 2.7361 3.1167
0.97346 1.1423 2.7316 3.1167
0.98056 1.1357 2.7112 3.0987
0.99326 1.1357 2.7066 3.0987
1.0115 1.142 2.7168 3.1158
1.0298 1.1482 2.7268 3.1328
1.0549 1.1617 2.7541 3.1698
1.147 1.2479 2.9529 3.4048
1.1738 1.2618 2.9804 3.4428
1.1922 1.2665 2.9861 3.4558
1.2069 1.2673 2.9822 3.4577
1.2086 1.2545 2.9465 3.4229
1.2263 1.2585 2.9502 3.4339
1.2401 1.2585 2.9444 3.4339
1.2601 1.2647 2.9531 3.4509
1.2739 1.2647 2.9472 3.4508
1.2896 1.2666 2.9454 3.4558
1.3034 1.2666 2.9393 3.4558
1.3084 1.2582 2.9138 3.433
1.3225 1.2585 2.9084 3.4339
1.3404 1.2626 2.9115 3.4449
1.354 1.2626 2.9052 3.4449
1.3676 1.2626 2.8988 3.4449
1.3639 1.2468 2.8562 3.4019
1.3543 1.2259 2.8021 3.345
1.3523 1.2124 2.7648 3.308
1.3504 1.1992 2.7284 3.272
1.3477 1.1856 2.6913 3.235
1.3486 1.1753 2.6616 3.2069
1.3477 1.1638 2.6293 3.1755
1.3345 1.142 2.5738 3.116
1.289 1.0932 2.4578 2.9829
nan nan nan inf
nan nan nan inf
1.4682 1.2128 2.7062 3.3091
1.4809 1.2128 2.6993 3.3091
1.5161 1.2311 2.733 3.3591
1.5289 1.2311 2.7258 3.3591
1.5417 1.2311 2.7186 3.359
1.5369 1.2172 2.6808 3.3212
1.541 1.2106 2.659 3.3031
1.537 1.1978 2.6237 3.2681
1.5289 1.182 2.582 3.2251
1.5242 1.1692 2.5468 3.1901
1.5314 1.1656 2.5318 3.1802
1.5384 1.1619 2.5166 3.1702
1.536 1.1512 2.4864 3.1412
1.5373 1.1435 2.4626 3.1201
1.5419 1.1384 2.4444 3.1063
1.5474 1.134 2.4277 3.0942
1.5371 1.1183 2.3868 3.0512
1.5295 1.1047 2.3507 3.0142
1.5375 1.1026 2.3389 3.0083
1.5345 1.0926 2.3107 2.9813
1.5329 1.0838 2.285 2.9573
1.5315 1.0754 2.26 2.9342
1.5385 1.0729 2.2475 2.9274
1.5347 1.063 2.2196 2.9003
1.5339 1.0553 2.1963 2.8793
1.5265 1.0432 2.164 2.8463
1.4595 0.99081 2.0486 2.7034
0.8561 0.57739 1.1898 1.5754
0.85455 0.57261 1.176 1.5624
0.87443 0.58218 1.1915 1.5885
0.86947 0.57521 1.1732 1.5695
0.87495 0.5752 1.1691 1.5694
0.8804 0.57519 1.1649 1.5694
0.89382 0.58036 1.1712 1.5835
0.89134 0.57522 1.1567 1.5695
0.88935 0.57047 1.143 1.5565
0.893 0.56939 1.1366 1.5536
0.89483 0.56718 1.128 1.5475
0.88879 0.56005 1.1097 1.5281
0.89314 0.55951 1.1045 1.5266
0.8824 0.5496 1.0808 1.4996
0.8866 0.54907 1.0756 1.4981
0.89076 0.54853 1.0704 1.4967
0.89575 0.54852 1.0662 1.4966
0.89806 0.54689 1.0588 1.4922
0.90576 0.54855 1.0578 1.4967
0.91251 0.54964 1.0556 1.4997
0.9187 0.55038 1.0527 1.5017
0.9218 0.5493 1.0463 1.4988
0.93348 0.55332 1.0496 1.5097
0.92294 0.54421 1.028 1.4849
0.94112 0.55205 1.0384 1.5063
0.94381 0.55078 1.0316 1.5028
0.94861 0.55077 1.0272 1.5028
0.95412 0.55117 1.0235 1.5039
0.9608 0.55226 1.021 1.5068
0.96555 0.55224 1.0165 1.5068
0.96973 0.55191 1.0113 1.5059
0.97444 0.5519 1.0067 1.5059
0.97266 0.54824 0.99551 1.4959
0.9597 0.53836 0.97307 1.4689
0.96656 0.53965 0.97088 1.4724
0.97211 0.54021 0.96734 1.474
0.96174 0.53197 0.94809 1.4515
0.95121 0.52373 0.92895 1.429
0.95758 0.52484 0.92643 1.432
0.96394 0.52594 0.92388 1.435
0.98818 0.53676 0.93825 1.4646
0.99089 0.53585 0.93203 1.4621
1.0007 0.53877 0.93242 1.47
1.0242 0.54906 0.94544 1.4981
1.03 0.54978 0.94186 1.5001
1.0171 0.54057 0.92132 1.475
1.0534 0.55751 0.94526 1.5212
1.0619 0.55969 0.94399 1.5271
1.0594 0.55606 0.93291 1.5172
1.0659 0.55714 0.92974 1.5202
1.0787 0.56155 0.93204 1.5322
1.0873 0.56376 0.93061 1.5382
1.0942 0.56504 0.92762 1.5417
1.1103 0.5711 0.93236 1.5582
1.1217 0.57475 0.93306 1.5682
1.1994 0.61215 0.98818 1.6703
1.1318 0.57546 0.92365 1.5701
1.3526 0.68511 1.0933 1.8693
1.3643 0.68839 1.0922 1.8783
1.443 0.72543 1.1442 1.9793
1.4403 0.72138 1.131 1.9683
1.4831 0.74009 1.1534 2.0193
1.4885 0.74009 1.1465 2.0193
nan nan nan -inf
nan nan nan -inf
nan nan nan -inf
nan nan nan -inf
nan nan nan -inf
nan nan nan -inf
nan nan nan -inf
-1.0165 0.51693 0.80341 1.395
-1.008 0.51452 0.80441 1.3885
-1.0042 0.51452 0.80914 1.3885
-1.0062 0.51748 0.81853 1.3965
-0.99084 0.51155 0.81381 1.3805
-0.99482 0.5156 0.82494 1.3914
-0.99698 0.51875 0.83467 1.3999
-0.99978 0.52226 0.84504 1.4094
-0.99615 0.52244 0.85002 1.4099
-0.98615 0.51929 0.84952 1.4014
-0.96777 0.51169 0.84164 1.3809
-0.96065 0.51001 0.84341 1.3763
-0.96466 0.51427 0.85499 1.3878
-0.97411 0.52148 0.87157 1.4073
-0.97206 0.52259 0.87799 1.4103
-0.96928 0.52332 0.88378 1.4122
-0.96856 0.52519 0.8915 1.4173
-0.94993 0.51732 0.88263 1.3961
-0.95534 0.52256 0.89605 1.4102
-0.96194 0.5285 0.91078 1.4262
-0.95356 0.52625 0.91138 1.4202
-0.95999 0.53219 0.92619 1.4362
-0.95462 0.53163 0.92971 1.4347
-0.94924 0.53107 0.93319 1.4332
-0.94219 0.52958 0.93501 1.4291
-0.93712 0.5292 0.93876 1.4281
-0.93562 0.53086 0.94611 1.4326
-0.93863 0.53511 0.95811 1.4441
-0.93766 0.53714 0.96616 1.4495
-0.93664 0.53917 0.97422 1.455
-0.934 0.54029 0.98065 1.4581
-0.93505 0.54359 0.99104 1.467
-0.93168 0.54435 0.9968 1.469
-0.93075 0.54656 1.0052 1.475
-0.92851 0.54803 1.0123 1.4789
-0.92189 0.54693 1.0146 1.476
-0.91146 0.54356 1.0127 1.4669
-0.90239 0.54098 1.0121 1.4599
-0.89764 0.54099 1.0164 1.4599
-0.90319 0.54725 1.0324 1.4768
-0.89835 0.54726 1.0366 1.4769
-0.88267 0.54064 1.0282 1.459
-0.88438 0.54468 1.0401 1.4699
-0.88121 0.54575 1.0463 1.4728
-0.87452 0.54465 1.0483 1.4698
-0.86428 0.54133 1.046 1.4608
-0.86753 0.54647 1.06 1.4747
-0.85963 0.54463 1.0605 1.4698
-0.85466 0.54464 1.0645 1.4698
-0.84843 0.54386 1.067 1.4677
-0.84342 0.54387 1.071 1.4677
-0.83726 0.54314 1.0735 1.4657
-0.84122 0.54903 1.0891 1.4816
-0.82314 0.54052 1.0761 1.4587
-0.81192 0.53645 1.0718 1.4477
-0.81493 0.54181 1.0864 1.4621
-0.81506 0.54531 1.0972 1.4716
-0.80441 0.54162 1.0936 1.4616
-0.79381 0.53792 1.0899 1.4517
-0.7984 0.54455 1.1071 1.4695
-0.79158 0.54345 1.1086 1.4666
-0.78638 0.54346 1.1123 1.4666
-0.77739 0.54085 1.1106 1.4596
-0.7769 0.54416 1.1211 1.4685
-0.76218 0.5375 1.1109 1.4505
-0.75384 0.53529 1.1099 1.4446
-0.73745 0.5273 1.0968 1.423
-0.679 0.48893 1.0202 1.3195
-0.63844 0.463 0.96913 1.2495
-0.6339 0.46301 0.97214 1.2495
-0.62934 0.46302 0.97513 1.2495
-0.71618 0.53078 1.1212 1.4324
-0.71091 0.53079 1.1246 1.4324
-0.70563 0.5308 1.1279 1.4324
-0.69252 0.52488 1.1186 1.4165
-0.69835 0.53336 1.14 1.4393
-0.68674 0.52855 1.1329 1.4264
-0.68763 0.53337 1.1465 1.4394
-0.68225 0.53338 1.1497 1.4394
-0.68336 0.53852 1.1641 1.4533
-0.67697 0.53779 1.1657 1.4513
-0.66779 0.53483 1.1624 1.4433
-0.66141 0.5341 1.1639 1.4413
-0.65322 0.53188 1.1622 1.4354
-0.65582 0.53851 1.1797 1.4532
-0.65028 0.53851 1.1828 1.4533
-0.64472 0.53852 1.1859 1.4533
-0.63827 0.53779 1.1873 1.4513
-0.64596 0.54907 1.2152 1.4817
-1.038 0.89014 1.975 2.4022
-1.0959 0.94833 2.1093 2.5592
-1.086 0.94834 2.1144 2.5592
-1.0777 0.94977 2.1227 2.5631
-1.0706 0.95237 2.1336 2.5701
-1.061 0.95275 2.1394 2.5711
-1.0608 0.96165 2.1644 2.5951
-1.0631 0.97314 2.1953 2.6262
-1.0596 0.97945 2.2145 2.6432
-1.0591 0.98866 2.2404 2.668
-1.0698 1.0087 2.2908 2.7221
-1.0901 1.0383 2.3633 2.8021
-1.1599 1.1162 2.5459 3.0121
-1.1479 1.1162 2.5513 3.0121
-1.1325 1.1128 2.5489 3.003
-1.1041 1.0965 2.5168 2.959
-1.0827 1.0868 2.4998 2.933
-1.0545 1.0702 2.4665 2.888
-1.0227 1.0494 2.4235 2.832
-0.99556 1.0331 2.3905 2.788
-0.97797 1.0265 2.3797 2.7701
-0.96498 1.0246 2.3799 2.7649
-0.95379 1.0246 2.3844 2.7649
-0.94566 1.0279 2.3966 2.7739
-0.96033 1.0564 2.4677 2.851
-1.0958 1.2202 2.8555 3.293
-1.0946 1.2339 2.8928 3.33
-1.0932 1.248 2.9308 3.3678
-1.0795 1.248 2.9359 3.3679
-1.0669 1.2495 2.9445 3.3719
-1.0518 1.248 2.946 3.3679
-1.0361 1.2458 2.9456 3.3619
-1.0193 1.2421 2.9417 3.3519
-1.0042 1.2406 2.943 3.3479
-0.98744 1.2369 2.9388 3.3379
-0.97334 1.2365 2.9426 3.3369
-0.96779 1.2472 2.9726 3.3658
-0.95382 1.2472 2.9771 3.3658
-0.93983 1.2472 2.9816 3.3658
-0.7423 1 2.3941 2.6986
-0.71103 0.97262 2.3319 2.6247
-0.6943 0.96461 2.316 2.6031
-0.66968 0.94523 2.2726 2.5508
-0.65325 0.93698 2.2559 2.5286
-0.63589 0.92713 2.2352 2.502
-0.6193 0.91812 2.2164 2.4777
-0.59818 0.90198 2.1803 2.4341
-0.58517 0.89775 2.1728 2.4227
-0.57017 0.89027 2.1574 2.4025
-0.5579 0.88688 2.1518 2.3934
-0.54275 0.87873 2.1346 2.3714
-0.52867 0.87206 2.1209 2.3534
-0.51591 0.86736 2.112 2.3407
-0.50428 0.86446 2.1073 2.3329
-0.49049 0.85766 2.093 2.3145
-0.47927 0.85519 2.0893 2.3078
-0.46806 0.85266 2.0853 2.301
-0.45783 0.85186 2.0856 2.2989
-0.44983 0.85529 2.0961 2.3081
-0.43726 0.85001 2.0852 2.2939
-0.42855 0.85217 2.0926 2.2997
-0.4193 0.85335 2.0975 2.3029
-0.40958 0.85364 2.1001 2.3037
-0.39738 0.84868 2.0898 2.2903
-0.38806 0.84978 2.0943 2.2932
-0.3795 0.85267 2.1033 2.301
-0.36952 0.85244 2.1045 2.3004
-0.36047 0.85444 2.1111 2.3058
-0.3505 0.85431 2.1125 2.3055
-0.34266 0.85955 2.1271 2.3196
-0.33134 0.85613 2.1202 2.3104
-0.32229 0.85856 2.1277 2.3169
-0.31119 0.85553 2.1217 2.3088
-0.30191 0.8575 2.128 2.3141
-0.29183 0.85726 2.1288 2.3134
-0.28282 0.8603 2.1377 2.3216
-0.27187 0.85742 2.1319 2.3139
-0.26368 0.86342 2.1481 2.3301
-0.25286 0.86096 2.1431 2.3234
-0.24322 0.86249 2.1481 2.3275
-0.23429 0.86676 2.1599 2.3391
-0.22492 0.86981 2.1686 2.3473
-0.21481 0.87012 2.1704 2.3481
-0.20478 0.87085 2.1732 2.3501
-0.19509 0.87317 2.1799 2.3564
-0.18533 0.87543 2.1865 2.3625
-0.17544 0.87734 2.1921 2.3676
-0.16527 0.87807 2.1947 2.3696
-0.15562 0.88178 2.2047 2.3796
-0.14535 0.88232 2.2068 2.3811
-0.13531 0.88448 2.2128 2.3869
-0.12549 0.88858 2.2237 2.3979
-0.11458 0.88497 2.2152 2.3882
-0.10485 0.89078 2.2303 2.4039
-0.0944 0.89103 2.2314 2.4046
-0.084101 0.89299 2.2367 2.4099
-0.073842 0.89602 2.2447 2.418
-0.063624 0.90067 2.2566 2.4306
-0.052937 0.89921 2.2533 2.4266
-0.042496 0.90229 2.2612 2.435
-0.032098 0.90866 2.2773 2.4521
-0.021396 0.90851 2.2771 2.4517
-0.010687 0.90755 2.2748 2.4491
0 0.91316 2.2888 2.4643
0.01076 0.91384 2.2905 2.4661
0.021601 0.91725 2.299 2.4753
0.032464 0.91906 2.3034 2.4802
0.043292 0.91921 2.3036 2.4806
0.054474 0.92534 2.3187 2.4972
0.065528 0.92763 2.3242 2.5033
0.076543 0.92881 2.3268 2.5065
0.087629 0.93047 2.3306 2.511
0.098821 0.93278 2.3359 2.5172
0.10986 0.93337 2.3369 2.5188
0.12131 0.93702 2.3455 2.5287
0.13497 0.95573 2.3917 2.5792
0.14443 0.94412 2.362 2.5478
0.15742 0.9556 2.3901 2.5788
0.22075 1.2509 3.1275 3.3756
0.23544 1.2509 3.1264 3.3756
0.25012 1.2509 3.1253 3.3756
0.26512 1.2523 3.1278 3.3796
0.28121 1.2586 3.1422 3.3966
0.29597 1.2586 3.1409 3.3966
0.31072 1.2586 3.1394 3.3966
0.32528 1.2579 3.1361 3.3946
0.34 1.2579 3.1345 3.3946
0.35473 1.2579 3.1329 3.3946
0.36641 1.2476 3.1055 3.3667
0.38145 1.2491 3.1074 3.3707
0.39604 1.2491 3.1056 3.3707
0.41099 1.2502 3.1065 3.3737
0.42558 1.2502 3.1045 3.3737
0.44016 1.2502 3.1025 3.3737
0.45607 1.2539 3.1096 3.3837
0.47068 1.2539 3.1074 3.3837
0.48527 1.2539 3.1051 3.3837
0.49985 1.2539 3.1028 3.3837
0.51442 1.2539 3.1004 3.3837
0.52898 1.2538 3.098 3.3837
0.54545 1.2583 3.1064 3.3957
0.56103 1.2605 3.1093 3.4017
0.57563 1.2605 3.1066 3.4017
0.59039 1.2609 3.1048 3.4027
0.60532 1.2616 3.1038 3.4047
0.62117 1.2642 3.1073 3.4116
0.6365 1.2657 3.108 3.4156
0.63759 1.2394 3.0406 3.3448
0.63063 1.199 2.9385 3.2358
0.6257 1.1642 2.8503 3.1418
0.63461 1.1561 2.8273 3.1198
0.64726 1.1549 2.8216 3.1168
0.64503 1.1279 2.7525 3.0438
0.6465 1.1082 2.7016 2.9908
0.65565 1.1023 2.6841 2.9747
0.66623 1.099 2.6728 2.9657
0.67832 1.0982 2.6679 2.9637
0.68781 1.0934 2.6529 2.9507
0.69837 1.0904 2.6425 2.9427
0.7084 1.0868 2.6304 2.9329
0.72075 1.0868 2.627 2.9329
0.73308 1.0868 2.6236 2.9329
0.74616 1.0879 2.6228 2.9359
0.76802 1.1016 2.6522 2.9728
0.80673 1.1387 2.7377 3.0728
0.89212 1.2394 2.9759 3.3448
0.90609 1.2394 2.9716 3.3448
0.92004 1.2394 2.9673 3.3448
0.91944 1.2202 2.9169 3.2928
0.932 1.2187 2.909 3.2888
0.93506 1.205 2.8721 3.2519
0.943 1.198 2.8509 3.2329
0.94395 1.1824 2.8094 3.1909
0.94634 1.1691 2.7733 3.1549
0.9484 1.1557 2.7372 3.1189
0.96032 1.1546 2.7301 3.1159
0.9722 1.1535 2.7229 3.1129
0.98497 1.1535 2.7183 3.1129
0.99869 1.1546 2.7162 3.1158
1.0086 1.1513 2.7038 3.107
1.0275 1.1584 2.7155 3.126
1.0719 1.1935 2.7931 3.221
1.1351 1.2488 2.9169 3.3699
1.1645 1.2658 2.9513 3.4159
1.1797 1.2673 2.9492 3.4199
1.1946 1.2684 2.9462 3.4229
1.1983 1.2577 2.9158 3.394
1.213 1.2588 2.9127 3.397
1.2267 1.2588 2.907 3.397
1.2425 1.261 2.9063 3.403
1.2602 1.2651 2.9098 3.414
1.2742 1.2654 2.9047 3.415
1.2931 1.2706 2.9105 3.429
1.2927 1.257 2.8732 3.3921
1.3089 1.2596 2.873 3.3991
1.3236 1.2607 2.8693 3.4021
1.337 1.2607 2.8631 3.4021
1.3504 1.2607 2.8567 3.402
1.361 1.2581 2.8445 3.395
1.3489 1.2348 2.7855 3.3322
1.3485 1.2225 2.7516 3.2991
1.3404 1.2036 2.7028 3.2481
1.3472 1.1984 2.6848 3.2341
1.3409 1.1817 2.6412 3.1891
1.3364 1.167 2.6019 3.1492
1.3211 1.1432 2.5428 3.0852
nan nan nan inf
nan nan nan inf
nan nan nan inf
1.468 1.2262 2.7003 3.3091
1.5107 1.2511 2.748 3.3762
1.5236 1.2511 2.7409 3.3762
1.5365 1.2511 2.7336 3.3762
1.5296 1.2351 2.6917 3.3332
1.5395 1.233 2.6797 3.3273
1.5362 1.2204 2.6451 3.2933
1.5359 1.2103 2.6162 3.2663
1.5292 1.1955 2.577 3.2263
1.5365 1.1918 2.5619 3.2163
1.538 1.1837 2.5372 3.1943
1.5266 1.1659 2.4919 3.1463
1.5358 1.164 2.4808 3.1413
1.5415 1.1596 2.464 3.1293
1.5407 1.1504 2.4372 3.1044
1.5352 1.1378 2.4034 3.0704
1.5293 1.1251 2.3696 3.0364
1.5323 1.1192 2.3499 3.0203
1.5331 1.1118 2.3273 3.0005
1.5276 1.1 2.2953 2.9684
1.5316 1.0952 2.278 2.9554
1.5324 1.0881 2.2562 2.9364
1.5314 1.08 2.2322 2.9145
1.5287 1.0707 2.2059 2.8895
1.5204 1.0577 2.172 2.8545
1.5284 1.0563 2.1618 2.8504
1.5294 1.05 2.1418 2.8336
0.88532 0.60384 1.2276 1.6295
0.86865 0.58864 1.1926 1.5885
1.4439 0.9722 1.963 2.6236
1.4116 0.9444 1.9003 2.5486
1.4076 0.93587 1.8765 2.5256
1.4164 0.93586 1.8698 2.5255
0.89198 0.58573 1.1661 1.5807
0.89176 0.58201 1.1545 1.5706
0.88524 0.57427 1.135 1.5497
0.89055 0.57426 1.1308 1.5497
0.89236 0.57202 1.1223 1.5437
0.88083 0.56132 1.0971 1.5148
0.88596 0.56131 1.093 1.5148
0.88812 0.55945 1.0852 1.5097
0.89209 0.55874 1.0796 1.5078
0.88047 0.54836 1.0554 1.4798
0.8854 0.54835 1.0513 1.4798
0.88799 0.5469 1.0443 1.4759
0.89287 0.54689 1.0401 1.4759
0.89894 0.54762 1.0373 1.4778
0.90081 0.54581 1.0297 1.4729
0.90746 0.54691 1.0275 1.4759
0.91782 0.55023 1.0294 1.4849
0.91714 0.54695 1.019 1.476
0.92627 0.54953 1.0194 1.483
0.94233 0.55619 1.0274 1.5009
0.94464 0.55471 1.0202 1.497
0.95007 0.5551 1.0165 1.498
0.958 0.55694 1.0154 1.503
0.9583 0.55435 1.0062 1.496
0.96046 0.55288 0.99899 1.492
0.96225 0.55122 0.99149 1.4876
0.96463 0.54994 0.98465 1.4841
0.96828 0.54939 0.97913 1.4826
0.96075 0.54254 0.96242 1.4641
0.96062 0.53993 0.9533 1.4571
0.96646 0.5407 0.95013 1.4592
0.95492 0.53179 0.93 1.4351
0.97738 0.54183 0.94296 1.4622
0.9811 0.54144 0.93769 1.4612
0.99499 0.54666 0.94207 1.4752
1.0041 0.54924 0.94181 1.4822
1.0154 0.55296 0.94342 1.4922
1.0164 0.55113 0.93553 1.4873
1.0324 0.55741 0.94136 1.5043
1.0362 0.55705 0.93589 1.5033
1.0503 0.56225 0.9397 1.5173
1.0546 0.56223 0.93473 1.5173
1.0688 0.56745 0.9384 1.5313
1.0774 0.56966 0.937 1.5373
1.0812 0.56932 0.93137 1.5364
1.0876 0.57041 0.92806 1.5393
1.1793 0.61602 0.99673 1.6624
1.186 0.61711 0.99294 1.6654
1.3366 0.69274 1.1084 1.8695
1.3475 0.69569 1.1068 1.8774
1.3469 0.69271 1.0957 1.8694
1.4468 0.74127 1.1657 2.0004
1.4966 0.7639 1.1943 2.0615
1.5026 0.76409 1.1875 2.062
1.5085 0.76427 1.1808 2.0625
1.5071 0.76076 1.1683 2.053
1.5085 0.75874 1.1581 2.0476
nan nan nan -inf
nan nan nan -inf
nan nan nan -inf
nan nan nan -inf
nan nan nan -inf
nan nan nan -inf
nan nan nan -inf
-1.0114 0.52021 0.79677 1.3887
-1.0105 0.5217 0.80383 1.3927
-1.0096 0.5232 0.81089 1.3967
-0.98128 0.51044 0.79574 1.3626
-0.97793 0.51065 0.80068 1.3632
-0.97839 0.51287 0.80877 1.3691
-0.97848 0.51492 0.81663 1.3746
-0.96966 0.5123 0.81704 1.3676
-0.97074 0.51492 0.8258 1.3746
-0.97281 0.5181 0.83548 1.383
-0.97412 0.52091 0.8446 1.3905
-0.96659 0.519 0.84608 1.3855
-0.96263 0.51902 0.85064 1.3855
-0.9634 0.52161 0.85943 1.3924
-0.97316 0.52912 0.87639 1.4125
-0.9669 0.52796 0.87904 1.4094
-0.96278 0.52798 0.8836 1.4094
-0.96603 0.53206 0.895 1.4203
-0.96455 0.53358 0.90209 1.4244
-0.96029 0.53358 0.90662 1.4244
-0.95667 0.53394 0.91176 1.4253
-0.95302 0.53431 0.91687 1.4263
-0.94606 0.53283 0.91879 1.4224
-0.95094 0.53804 0.93226 1.4363
-0.94525 0.5373 0.93545 1.4343
-0.93291 0.53278 0.93197 1.4222
-0.92593 0.53129 0.93374 1.4183
-0.92342 0.53239 0.94002 1.4212
-0.91384 0.5294 0.93907 1.4132
-0.92323 0.53745 0.95769 1.4347
-0.92734 0.5425 0.97106 1.4482
-0.92816 0.54567 0.98113 1.4567
-0.92891 0.54885 0.99122 1.4651
-0.91984 0.54624 0.99084 1.4582
-0.91699 0.54733 0.99714 1.4611
-0.90731 0.54434 0.99599 1.4531
-0.90943 0.54845 1.0078 1.4641
-0.89415 0.54207 1.0003 1.447
-0.88884 0.54171 1.0038 1.4461
-0.88806 0.54413 1.0125 1.4525
-0.88721 0.54655 1.0212 1.459
-0.8806 0.54544 1.0233 1.456
-0.87339 0.54395 1.0246 1.4521
-0.87087 0.5454 1.0314 1.4559
-0.86543 0.54504 1.0348 1.455
-0.85643 0.54243 1.0339 1.448
-0.85678 0.54576 1.0443 1.4569
-0.85187 0.54577 1.0483 1.4569
-0.84462 0.54428 1.0495 1.4529
-0.8437 0.54689 1.0585 1.4599
-0.83983 0.54762 1.0639 1.4619
-0.83426 0.54726 1.0671 1.4609
-0.82325 0.54331 1.0633 1.4503
-0.82526 0.54798 1.0763 1.4628
-0.8146 0.54424 1.0728 1.4528
-0.80621 0.542 1.0722 1.4469
-0.80165 0.54233 1.0767 1.4477
-0.79659 0.54234 1.0804 1.4478
-0.78877 0.54048 1.0805 1.4428
-0.7842 0.54084 1.0849 1.4438
-0.78068 0.54195 1.0908 1.4467
-0.77448 0.54121 1.093 1.4447
-0.76775 0.5401 1.0943 1.4418
-0.76464 0.54155 1.1009 1.4457
-0.75632 0.53931 1.0999 1.4397
-0.74593 0.53558 1.0958 1.4297
-0.73508 0.53147 1.0909 1.4187
-0.71958 0.52393 1.0788 1.3986
-0.63022 0.46213 0.95452 1.2336
-0.62573 0.46214 0.9575 1.2337
-0.62123 0.46215 0.96045 1.2337
-0.69612 0.52166 1.0874 1.3926
-0.69101 0.52167 1.0907 1.3926
-0.68588 0.52168 1.094 1.3926
-0.68856 0.52768 1.1098 1.4086
-0.6852 0.52913 1.1161 1.4125
-0.67995 0.52913 1.1193 1.4125
-0.6766 0.53064 1.1257 1.4165
-0.67178 0.53102 1.1297 1.4176
-0.6716 0.53512 1.1416 1.4285
-0.67132 0.53922 1.1535 1.4394
-0.6659 0.53923 1.1567 1.4395
-0.66046 0.53924 1.1598 1.4395
-0.655 0.53925 1.1629 1.4395
-0.64766 0.5377 1.1626 1.4354
-0.64219 0.53771 1.1657 1.4354
-0.6407 0.54109 1.176 1.4444
-0.64088 0.54597 1.1897 1.4574
-0.63965 0.54972 1.2009 1.4675
-0.64387 0.55829 1.2226 1.4903
-1.0984 0.96099 2.1097 2.5653
-1.0889 0.96138 2.1157 2.5664
-1.0791 0.96154 2.1212 2.5668
-1.0689 0.96133 2.1258 2.5663
-1.0651 0.96696 2.1433 2.5813
-1.0619 0.97334 2.1624 2.5983
-1.0594 0.98046 2.1833 2.6173
-1.0672 0.99732 2.2259 2.6623
-1.0634 1.0036 2.245 2.6792
-1.0674 1.0175 2.2811 2.7162
-1.0803 1.0404 2.3374 2.7772
-1.1614 1.1299 2.5441 3.0162
-1.1494 1.1299 2.5495 3.0163
-1.1358 1.1284 2.5514 3.0121
-1.1044 1.1089 2.5126 2.9601
-1.0785 1.0947 2.4854 2.9222
-1.0563 1.0838 2.4658 2.8932
-1.0295 1.0681 2.4349 2.8512
-1.0027 1.052 2.4029 2.8082
-0.97652 1.0362 2.3716 2.7662
-0.9667 1.0377 2.3795 2.7701
-0.95549 1.0377 2.384 2.7701
-0.94904 1.0429 2.4006 2.7841
-0.94919 1.0557 2.4344 2.8181
-1.0705 1.2052 2.7842 3.2171
-1.0804 1.2314 2.8499 3.2871
-1.0809 1.2474 2.8921 3.33
-1.0673 1.2474 2.8972 3.33
-1.0536 1.2474 2.9022 3.33
-1.04 1.2475 2.9071 3.33
-1.0256 1.2467 2.9103 3.328
-1.0119 1.2467 2.9151 3.3281
-0.99522 1.243 2.911 3.3181
-0.98033 1.2415 2.9122 3.3141
-0.97328 1.25 2.9369 3.3369
-0.95945 1.25 2.9414 3.337
-0.94532 1.2497 2.9451 3.336
-0.93061 1.2486 2.9468 3.333
-0.74663 1.0169 2.4036 2.7145
-0.69705 0.96397 2.2818 2.5733
-0.67902 0.95373 2.2608 2.546
-0.65949 0.94107 2.2339 2.5121
-0.65962 0.9565 2.2737 2.5534
-0.63863 0.94135 2.2407 2.5129
-0.62126 0.93112 2.2193 2.4856
-0.60595 0.92372 2.2045 2.4658
-0.58504 0.90738 2.1683 2.4222
-0.56564 0.89288 2.1364 2.3835
-0.55698 0.89513 2.1444 2.3895
-0.54903 0.89864 2.1554 2.3989
-0.53173 0.88672 2.1293 2.3671
-0.5194 0.88281 2.1224 2.3566
-0.50615 0.87716 2.1112 2.3416
-0.49427 0.87374 2.1054 2.3324
-0.48049 0.86677 2.0908 2.3138
-0.47022 0.86597 2.0911 2.3117
-0.46135 0.86782 2.0978 2.3166
-0.45118 0.86725 2.0986 2.3151
-0.44049 0.86566 2.0968 2.3109
-0.42923 0.86287 2.0921 2.3034
-0.42042 0.86501 2.0993 2.3091
-0.40944 0.8627 2.0956 2.3029
-0.4007 0.86514 2.1035 2.3095
-0.38866 0.86041 2.0938 2.2968
-0.37981 0.86271 2.1012 2.303
-0.36954 0.86181 2.1008 2.3006
-0.3604 0.86362 2.1069 2.3054
-0.35083 0.86447 2.1107 2.3077
-0.34151 0.86604 2.1161 2.3119
-0.33127 0.86531 2.1159 2.3099
-0.32315 0.87027 2.1296 2.3232
-0.31281 0.8694 2.129 2.3208
-0.30342 0.87121 2.1349 2.3257
-0.29307 0.87033 2.1341 2.3233
-0.28399 0.87328 2.1427 2.3312
-0.27382 0.87304 2.1434 2.3305
-0.26376 0.87312 2.1449 2.3308
-0.2547 0.8767 2.1549 2.3403
-0.24507 0.87852 2.1606 2.3452
-0.23533 0.88015 2.1657 2.3495
-0.22492 0.87929 2.1647 2.3472
-0.21561 0.88291 2.1746 2.3569
-0.20538 0.88291 2.1756 2.3569
-0.19576 0.88574 2.1835 2.3645
-0.18532 0.88497 2.1825 2.3624
-0.17541 0.88681 2.1879 2.3673
-0.16578 0.89037 2.1975 2.3768
-0.15574 0.89213 2.2026 2.3815
-0.14539 0.89221 2.2035 2.3817
-0.13551 0.8955 2.2123 2.3905
-0.12551 0.8984 2.2201 2.3982
-0.11532 0.90049 2.2258 2.4038
-0.1051 0.90268 2.2317 2.4097
-0.094644 0.90311 2.2333 2.4108
-0.084306 0.90496 2.2383 2.4158
-0.073773 0.90497 2.2387 2.4158
-0.0634 0.9073 2.2447 2.422
-0.053124 0.91226 2.2573 2.4352
-0.042528 0.91285 2.259 2.4368
-0.031949 0.91434 2.2628 2.4408
-0.021423 0.91963 2.2761 2.4549
-0.010743 0.92228 2.2827 2.462
0 0.92282 2.2841 2.4634
0.010783 0.92574 2.2913 2.4712
0.021628 0.92842 2.2978 2.4784
0.032543 0.93134 2.3049 2.4862
0.043473 0.93315 2.3092 2.491
0.05447 0.93538 2.3145 2.497
0.065416 0.93616 2.3162 2.4991
0.076827 0.94244 2.3314 2.5158
0.087913 0.94369 2.3341 2.5191
0.099064 0.94528 2.3376 2.5234
0.1104 0.9482 2.3443 2.5312
0.12162 0.94962 2.3473 2.535
0.13388 0.95834 2.3682 2.5583
0.1465 0.96808 2.3916 2.5843
0.15606 0.95769 2.3652 2.5565
0.21893 1.2541 3.0963 3.3478
0.2335 1.2541 3.0952 3.3478
0.24821 1.2548 3.0959 3.3498
0.26277 1.2548 3.0947 3.3498
0.27734 1.2548 3.0934 3.3498
0.29206 1.2556 3.0939 3.3518
0.30717 1.2578 3.0981 3.3578
0.32213 1.2593 3.1003 3.3618
0.33671 1.2593 3.0987 3.3617
0.35182 1.2612 3.1017 3.3667
0.36684 1.2627 3.1037 3.3707
0.38144 1.2627 3.1019 3.3707
0.39639 1.2638 3.1029 3.3737
0.40613 1.2489 3.0643 3.3339
0.42055 1.2489 3.0624 3.3339
0.43652 1.2534 3.0714 3.3459
0.45057 1.2523 3.0665 3.3429
0.46555 1.2538 3.0681 3.3469
0.47998 1.2538 3.0658 3.3469
0.49485 1.2549 3.0663 3.3499
0.50972 1.256 3.0666 3.3529
0.52446 1.2568 3.066 3.3549
0.53888 1.2567 3.0635 3.3549
0.55379 1.2579 3.0637 3.3578
0.56972 1.2612 3.0693 3.3668
0.58485 1.2627 3.0702 3.3708
0.59929 1.2627 3.0674 3.3708
0.61336 1.262 3.0627 3.3688
0.62739 1.2612 3.058 3.3668
0.63758 1.253 3.035 3.3448
0.63061 1.2122 2.9332 3.2358
0.62568 1.1769 2.845 3.1418
0.63459 1.1687 2.8221 3.1198
0.66202 1.1942 2.8807 3.188
0.64442 1.1392 2.7449 3.041
0.64479 1.1174 2.6895 2.9829
0.65259 1.1092 2.6666 2.9609
0.66333 1.1062 2.6563 2.9529
0.6733 1.1021 2.6433 2.9419
0.68527 1.1013 2.6383 2.9399
0.69601 1.0987 2.6288 2.9329
0.70837 1.0987 2.6254 2.9329
0.72072 1.0987 2.6221 2.9329
0.73305 1.0987 2.6186 2.9329
0.75354 1.1107 2.6438 2.965
0.77165 1.119 2.6598 2.987
0.8049 1.1485 2.7264 3.066
0.88946 1.2493 2.9615 3.335
0.90338 1.2493 2.9572 3.335
0.91728 1.2493 2.9529 3.335
0.91553 1.2283 2.8991 3.279
0.92349 1.2208 2.8771 3.259
0.93501 1.2182 2.8665 3.2519
0.94561 1.2145 2.8534 3.2421
0.94926 1.2021 2.8199 3.2091
0.94572 1.1812 2.7663 3.1531
0.94809 1.168 2.7311 3.1181
0.96031 1.1673 2.7249 3.116
0.97031 1.1639 2.7125 3.107
0.98179 1.1624 2.7044 3.103
0.9945 1.1624 2.6997 3.103
1.0118 1.1677 2.7073 3.1171
1.0337 1.1782 2.7267 3.1451
1.0728 1.2078 2.7902 3.2241
1.1297 1.2565 2.8974 3.3541
1.1508 1.2647 2.911 3.3761
1.1697 1.2703 2.9185 3.3911
1.1834 1.2703 2.9129 3.3911
1.1851 1.2576 2.8783 3.3572
1.2022 1.2614 2.8812 3.3672
1.2158 1.2614 2.8755 3.3672
1.2304 1.2625 2.8723 3.3702
1.2483 1.267 2.8767 3.3822
1.2637 1.2688 2.875 3.3871
1.2791 1.2707 2.8733 3.3921
1.2789 1.2573 2.8369 3.3563
1.2934 1.2584 2.8334 3.3592
1.313 1.2644 2.8407 3.3752
1.3271 1.2651 2.8362 3.3772
1.3404 1.2651 2.8299 3.3772
1.3537 1.2651 2.8235 3.3772
1.3436 1.2434 2.7688 3.3193
1.3455 1.2333 2.74 3.2923
1.3419 1.2183 2.7004 3.2523
1.3463 1.2108 2.6775 3.2323
1.3395 1.1936 2.6331 3.1862
1.3371 1.1805 2.598 3.1514
1.3266 1.1607 2.5481 3.0983
nan nan nan inf
nan nan nan inf
1.4267 1.2154 2.6483 3.2444
1.4391 1.2154 2.6416 3.2444
1.4864 1.2446 2.6981 3.3224
1.5212 1.2629 2.7308 3.3714
1.534 1.2629 2.7236 3.3714
1.5468 1.2629 2.7163 3.3713
1.531 1.2397 2.6593 3.3095
1.5309 1.2296 2.6304 3.2824
1.5296 1.2188 2.6 3.2534
1.5366 1.2146 2.5839 3.2424
1.5297 1.1997 2.545 3.2025
1.5305 1.1911 2.5195 3.1795
1.5239 1.1768 2.4823 3.1415
1.5346 1.1761 2.4735 3.1395
1.5403 1.1716 2.4568 3.1274
1.5336 1.1577 2.4206 3.0906
1.5359 1.151 2.3993 3.0725
1.5361 1.1427 2.3749 3.0505
1.5305 1.1304 2.342 3.0175
1.5268 1.1196 2.3124 2.9886
1.5315 1.1151 2.296 2.9766
1.5314 1.1072 2.2726 2.9556
1.5316 1.0997 2.25 2.9355
1.5343 1.0941 2.2314 2.9207
1.5311 1.0844 2.2043 2.8946
1.5382 1.0821 2.1925 2.8886
1.5268 1.0669 2.1546 2.8482
1.5281 1.0608 2.135 2.8317
1.5288 1.0544 2.115 2.8147
1.4343 0.98284 1.9648 2.6237
1.5251 1.0383 2.0685 2.7718
1.5242 1.0312 2.0472 2.7527
1.5255 1.0256 2.0288 2.7377
1.5261 1.0196 2.0099 2.7218
1.5209 1.0099 1.9835 2.6958
0.87969 0.58056 1.1362 1.5498
0.88166 0.57835 1.1277 1.5439
0.88694 0.57834 1.1235 1.5439
0.8818 0.57159 1.1063 1.5258
0.88241 0.56863 1.0964 1.5179
0.8852 0.56712 1.0894 1.5139
0.88795 0.56561 1.0823 1.5099
0.87831 0.55629 1.0603 1.485
0.88149 0.55515 1.054 1.482
0.88403 0.55364 1.047 1.4779
0.88721 0.55256 1.0408 1.475
0.88845 0.5503 1.0324 1.469
0.89328 0.55029 1.0282 1.469
0.89572 0.54883 1.0212 1.4651
0.90234 0.54994 1.0191 1.468
0.89792 0.54436 1.0045 1.4531
0.90974 0.54864 1.0081 1.4646
0.91106 0.54659 1.0001 1.4591
0.93331 0.55707 1.0149 1.4871
0.92426 0.54886 0.9956 1.4652
0.93715 0.55372 1 1.4781
0.94282 0.55429 0.99662 1.4797
0.94784 0.55449 0.99253 1.4802
0.95247 0.55447 0.98803 1.4802
0.95781 0.55488 0.98425 1.4812
0.96371 0.55561 0.98103 1.4832
0.96053 0.55115 0.96864 1.4713
0.96505 0.55113 0.96408 1.4712
0.96762 0.55002 0.95759 1.4683
0.97477 0.55153 0.95563 1.4723
0.97628 0.54985 0.94815 1.4678
0.98443 0.55192 0.94709 1.4733
0.99191 0.55361 0.94534 1.4779
1.0007 0.55606 0.94482 1.4844
1.0058 0.55642 0.9407 1.4853
1.0102 0.55642 0.93596 1.4853
1.0236 0.56132 0.9394 1.4984
1.028 0.56131 0.93455 1.4984
1.0434 0.56733 0.93969 1.5145
1.0478 0.56732 0.93474 1.5144
1.0578 0.57032 0.93472 1.5224
1.0643 0.57145 0.93157 1.5255
1.0735 0.57406 0.93078 1.5324
1.1588 0.61716 0.99523 1.6475
1.326 0.70334 1.128 1.8776
1.3256 0.70033 1.1169 1.8695
1.4583 0.76742 1.2171 2.0486
1.4468 0.75842 1.196 2.0246
1.4431 0.75353 1.1815 2.0115
1.5055 0.78315 1.2209 2.0906
1.5059 0.78034 1.2094 2.0831
1.5017 0.77529 1.1945 2.0696
1.5045 0.77381 1.1852 2.0657
1.5031 0.77026 1.1727 2.0562
1.5075 0.7697 1.1648 2.0547
1.5064 0.76637 1.1527 2.0458
nan nan nan -inf
nan nan nan -inf
nan nan nan -inf
nan nan nan -inf
nan nan nan -inf
nan nan nan -inf
nan nan nan -inf
-0.99501 0.51756 0.78127 1.3669
-1.0015 0.52285 0.79399 1.3808
-0.99405 0.52094 0.79577 1.3758
-0.97736 0.51414 0.79001 1.3578
-0.96999 0.51222 0.79164 1.3528
-0.96625 0.51222 0.7962 1.3528
-0.96355 0.51278 0.80163 1.3542
-0.96152 0.51373 0.80765 1.3567
-0.95981 0.51486 0.81396 1.3597
-0.95807 0.51599 0.82028 1.3627
-0.96255 0.52051 0.83201 1.3747
-0.97151 0.52751 0.84779 1.3931
-0.96645 0.52694 0.85143 1.3916
-0.9638 0.52769 0.8572 1.3936
-0.97626 0.53677 0.87657 1.4176
-0.97416 0.5379 0.88301 1.4206
-0.97202 0.53903 0.88945 1.4236
-0.96271 0.53618 0.8893 1.416
-0.96492 0.53977 0.89981 1.4255
-0.9553 0.53675 0.8993 1.4175
-0.95105 0.53675 0.9038 1.4175
-0.95139 0.53937 0.91269 1.4245
-0.9471 0.53938 0.91719 1.4245
-0.94138 0.53859 0.92029 1.4224
-0.93706 0.53861 0.92475 1.4224
-0.93235 0.53841 0.92881 1.4219
-0.92696 0.53783 0.9322 1.4204
-0.92092 0.53687 0.93489 1.4179
-0.91487 0.53592 0.93755 1.4153
-0.91047 0.53593 0.94188 1.4154
-0.913 0.54007 0.95346 1.4263
-0.90852 0.54008 0.95778 1.4263
-0.90588 0.54121 0.96406 1.4293
-0.90825 0.54537 0.97576 1.4403
-0.90331 0.54517 0.97967 1.4398
-0.89586 0.54345 0.98082 1.4352
-0.89124 0.54346 0.98506 1.4353
-0.89703 0.54986 1.0009 1.4522
-0.88679 0.54647 0.99891 1.4432
-0.87293 0.5408 0.99268 1.4282
-0.87912 0.54758 1.0093 1.4461
-0.87437 0.54759 1.0134 1.4462
-0.869 0.54723 1.0169 1.4452
-0.8683 0.54982 1.0258 1.4521
-0.85039 0.54151 1.0143 1.4301
-0.84562 0.54152 1.0183 1.4301
-0.8449 0.54415 1.0273 1.4371
-0.84411 0.54679 1.0362 1.444
-0.83866 0.54642 1.0395 1.4431
-0.83377 0.54643 1.0435 1.4431
-0.8305 0.54753 1.0495 1.446
-0.82499 0.54716 1.0527 1.445
-0.80925 0.53998 1.0427 1.4261
-0.81103 0.54448 1.0552 1.4379
-0.80494 0.54373 1.0576 1.436
-0.79829 0.54261 1.0592 1.433
-0.79599 0.54445 1.0665 1.4379
-0.79097 0.54447 1.0703 1.4379
-0.78593 0.54448 1.074 1.4379
-0.78087 0.54449 1.0777 1.438
-0.77194 0.54179 1.0761 1.4309
-0.76045 0.53726 1.0707 1.4189
-0.75541 0.53727 1.0742 1.4189
-0.76138 0.54518 1.0937 1.4398
-0.74992 0.54064 1.0881 1.4278
-0.74428 0.54027 1.0909 1.4268
-0.73551 0.53763 1.089 1.4199
-0.7298 0.53721 1.0916 1.4188
-0.64498 0.47815 0.97468 1.2628
-0.64039 0.47816 0.97773 1.2628
-0.63578 0.47817 0.98076 1.2628
-0.67707 0.51296 1.0553 1.3547
-0.6721 0.51297 1.0585 1.3547
-0.66761 0.51335 1.0625 1.3558
-0.66358 0.51412 1.0672 1.3578
-0.68321 0.53338 1.1104 1.4086
-0.67894 0.53415 1.1152 1.4107
-0.67608 0.53605 1.1224 1.4157
-0.67079 0.53606 1.1256 1.4157
-0.66408 0.53493 1.1264 1.4127
-0.66102 0.53677 1.1334 1.4176
-0.65661 0.53754 1.1381 1.4196
-0.65125 0.53755 1.1412 1.4196
-0.64587 0.53755 1.1443 1.4197
-0.64943 0.54507 1.1633 1.4395
-0.64395 0.54508 1.1664 1.4395
-0.63934 0.54585 1.1711 1.4416
-0.63734 0.54888 1.1806 1.4496
-0.637 0.55344 1.1934 1.4616
-0.63137 0.55344 1.1964 1.4616
-0.62824 0.55566 1.2042 1.4675
-1.0935 0.97597 2.1202 2.5775
-1.0835 0.97598 2.1254 2.5775
-1.0696 0.97252 2.1229 2.5684
-1.0621 0.9748 2.1329 2.5744
-1.0586 0.98087 2.1512 2.5904
-1.065 0.9964 2.1903 2.6315
-1.0655 1.0066 2.2179 2.6585
-1.0697 1.0206 2.2537 2.6953
-1.0661 1.0274 2.2738 2.7134
-1.0811 1.0524 2.3342 2.7794
-1.1571 1.138 2.5295 3.0054
-1.1451 1.138 2.535 3.0054
-1.1373 1.1421 2.5495 3.0163
-1.107 1.1236 2.5134 2.9673
-1.0807 1.1088 2.4855 2.9283
-1.0547 1.094 2.4574 2.8893
-1.0323 1.0827 2.4368 2.8593
-1.0048 1.0656 2.4032 2.8144
-0.98072 1.052 2.3771 2.7784
-0.96527 1.0474 2.3713 2.7662
-0.95408 1.0474 2.3759 2.7662
-0.94969 1.055 2.3976 2.7863
-0.95051 1.0686 2.4331 2.8223
-1.0545 1.2 2.7372 3.1693
-1.0689 1.2315 2.814 3.2523
-1.0695 1.2477 2.8561 3.2952
-1.056 1.2477 2.8612 3.2952
-1.0425 1.2477 2.8661 3.2952
-1.0287 1.2473 2.8701 3.2942
-1.0151 1.2473 2.875 3.2942
-0.99642 1.2409 2.8649 3.2772
-0.98261 1.2405 2.8687 3.2762
-0.9673 1.2383 2.868 3.2702
-0.96481 1.2526 2.9058 3.3081
-0.95024 1.2515 2.9077 3.3051
-0.93482 1.2492 2.9069 3.2991
-0.92111 1.2492 2.9112 3.2991
-0.72513 0.99831 2.33 2.6365
-0.70428 0.98453 2.3011 2.6001
-0.68336 0.97023 2.271 2.5624
-0.67634 0.97556 2.2867 2.5764
-0.65322 0.95749 2.2474 2.5287
-0.64151 0.95584 2.2466 2.5243
-0.62225 0.94271 2.2187 2.4897
-0.60199 0.92763 2.1861 2.4498
-0.59374 0.93086 2.1965 2.4584
-0.57611 0.91926 2.1719 2.4278
-0.55742 0.90555 2.1421 2.3915
-0.5486 0.90767 2.1498 2.3971
-0.53375 0.89972 2.1335 2.3761
-0.52007 0.89352 2.1212 2.3598
-0.5054 0.88535 2.1042 2.3382
-0.49455 0.88369 2.1027 2.3338
-0.48418 0.88287 2.103 2.3316
-0.47124 0.87724 2.0918 2.3168
-0.46026 0.87513 2.089 2.3112
-0.4512 0.87667 2.0948 2.3153
-0.44146 0.87694 2.0976 2.316
-0.43098 0.87576 2.0968 2.3129
-0.42159 0.87681 2.1013 2.3156
-0.41114 0.87565 2.1005 2.3126
-0.40085 0.87481 2.1004 2.3104
-0.39011 0.87295 2.0978 2.3054
-0.38174 0.87646 2.1081 2.3147
-0.37137 0.87544 2.1074 2.312
-0.36289 0.87897 2.1176 2.3213
-0.35201 0.87675 2.114 2.3155
-0.34261 0.8782 2.1191 2.3193
-0.33298 0.87918 2.123 2.3219
-0.32312 0.87959 2.1256 2.323
-0.314 0.88214 2.1332 2.3297
-0.30395 0.88216 2.1348 2.3298
-0.2947 0.88463 2.1421 2.3363
-0.28382 0.88221 2.1376 2.3299
-0.27421 0.88372 2.1426 2.3339
-0.26559 0.88868 2.1559 2.347
-0.25516 0.88776 2.1549 2.3445
-0.24553 0.88968 2.1608 2.3496
-0.23457 0.88678 2.1548 2.342
-0.2255 0.89111 2.1664 2.3534
-0.21573 0.89294 2.1719 2.3582
-0.20634 0.89665 2.182 2.368
-0.19596 0.89621 2.1818 2.3669
-0.18597 0.89767 2.1863 2.3707
-0.176 0.89938 2.1913 2.3752
-0.16621 0.90231 2.1993 2.383
-0.15565 0.90121 2.1974 2.3801
-0.14554 0.9028 2.2019 2.3843
-0.13594 0.90802 2.2153 2.3981
-0.12571 0.90954 2.2197 2.4021
-0.11517 0.909 2.2189 2.4006
-0.1052 0.91324 2.2298 2.4118
-0.094798 0.91433 2.2329 2.4147
-0.084478 0.91659 2.2388 2.4207
-0.074073 0.91845 2.2438 2.4256
-0.063703 0.92148 2.2515 2.4336
-0.053204 0.92348 2.2567 2.4389
-0.042655 0.92545 2.2617 2.4441
-0.032058 0.92734 2.2665 2.4491
-0.021456 0.93095 2.2754 2.4586
-0.01077 0.93456 2.2843 2.4681
0 0.93352 2.2818 2.4654
0.010822 0.93917 2.2956 2.4803
0.021651 0.93944 2.2962 2.481
0.032595 0.9429 2.3045 2.4902
0.0436 0.94597 2.3118 2.4983
0.054723 0.94987 2.3212 2.5086
0.065693 0.95027 2.3218 2.5096
0.077025 0.95506 2.3332 2.5223
0.087917 0.95391 2.33 2.5192
0.099323 0.95798 2.3395 2.53
0.11099 0.96349 2.3525 2.5445
0.12225 0.96484 2.3552 2.5481
0.13338 0.96509 2.3552 2.5488
0.14581 0.97396 2.3762 2.5722
0.20235 1.2552 3.0614 3.315
0.21678 1.2552 3.0605 3.315
0.23107 1.2544 3.0575 3.3129
0.24526 1.2533 3.0537 3.3099
0.25965 1.2533 3.0525 3.3099
0.27404 1.2533 3.0512 3.3099
0.28964 1.2586 3.0628 3.3239
0.30426 1.2594 3.0632 3.3259
0.31869 1.2594 3.0617 3.3259
0.33312 1.2594 3.0602 3.3259
0.34755 1.2594 3.0586 3.3259
0.36196 1.2594 3.0569 3.3259
0.37727 1.2624 3.0625 3.3339
0.39171 1.2624 3.0607 3.3339
0.40613 1.2624 3.0588 3.3339
0.42092 1.2635 3.0596 3.3369
0.42976 1.2473 3.0184 3.2941
0.44466 1.2492 3.0209 3.2991
0.45889 1.2492 3.0187 3.2991
0.47383 1.2511 3.0211 3.3041
0.48822 1.2515 3.0198 3.3051
0.50245 1.2515 3.0174 3.3051
0.51807 1.2549 3.0232 3.314
0.53296 1.2564 3.0244 3.318
0.54721 1.2564 3.0218 3.318
0.56077 1.2549 3.0156 3.314
0.57602 1.2571 3.0183 3.32
0.59025 1.2571 3.0156 3.32
0.60445 1.2571 3.0128 3.32
0.6207 1.2613 3.0198 3.331
0.63493 1.2613 3.0169 3.331
0.64914 1.2613 3.0138 3.331
0.65956 1.2541 2.9936 3.312
0.67264 1.2522 2.9859 3.307
0.63255 1.1534 2.7474 3.0461
0.63278 1.1307 2.6904 2.9861
0.64286 1.1261 2.6765 2.9741
0.65282 1.1216 2.6627 2.9621
0.662 1.1159 2.6461 2.9471
0.67332 1.114 2.6385 2.9421
0.68575 1.114 2.6353 2.9421
0.69935 1.1159 2.6365 2.9471
0.71273 1.1174 2.6367 2.9511
0.7254 1.1178 2.6342 2.9521
0.74031 1.1216 2.6396 2.962
0.75583 1.1262 2.6469 2.9742
0.77372 1.1341 2.662 2.9952
0.80542 1.1618 2.7231 3.0682
0.88279 1.2534 2.9337 3.3102
0.8966 1.2534 2.9295 3.3101
0.9104 1.2534 2.9253 3.3101
0.91469 1.2405 2.8909 3.2761
0.92604 1.2375 2.8795 3.2681
0.9373 1.2344 2.8681 3.2601
0.9421 1.2231 2.8374 3.2302
0.94541 1.2103 2.8031 3.1962
0.95201 1.2019 2.7793 3.1742
0.95598 1.1906 2.7486 3.1442
0.96245 1.1826 2.7257 3.1232
0.97341 1.1803 2.7159 3.1172
0.98525 1.1792 2.7087 3.1142
0.998 1.1792 2.704 3.1142
1.0166 1.186 2.715 3.1323
1.037 1.1947 2.73 3.1553
1.0761 1.2247 2.7933 3.2343
1.1226 1.2621 2.8736 3.3333
1.1385 1.2648 2.8743 3.3402
1.1545 1.2674 2.8749 3.3472
1.169 1.2686 2.8719 3.3502
1.1742 1.2595 2.846 3.3264
1.1876 1.2595 2.8404 3.3264
1.2024 1.261 2.8382 3.3303
1.2161 1.2614 2.8333 3.3313
1.2364 1.2686 2.8437 3.3503
1.2498 1.2686 2.8378 3.3503
1.2632 1.2686 2.8319 3.3503
1.2671 1.2592 2.8049 3.3254
1.281 1.2599 2.8006 3.3274
1.2965 1.2622 2.7995 3.3334
1.3097 1.2622 2.7934 3.3334
1.3209 1.2603 2.783 3.3283
1.334 1.2603 2.7767 3.3283
1.341 1.2546 2.758 3.3135
1.3344 1.2365 2.7118 3.2654
1.3348 1.2251 2.6806 3.2354
1.3341 1.213 2.6478 3.2034
1.3318 1.1997 2.6126 3.1684
1.3238 1.1816 2.5669 3.1205
1.3205 1.1679 2.5311 3.0845
nan nan nan inf
nan nan nan inf
1.4265 1.2285 2.6424 3.2444
1.458 1.2448 2.6707 3.2876
1.4787 1.2516 2.6784 3.3055
1.5111 1.2683 2.7069 3.3495
1.5238 1.2683 2.6997 3.3495
1.5365 1.2683 2.6925 3.3495
1.5336 1.2555 2.6581 3.3156
1.5349 1.2464 2.6316 3.2916
1.5421 1.2422 2.6156 3.2806
1.535 1.2266 2.5756 3.2395
1.5357 1.2176 2.5495 3.2157
1.5275 1.2017 2.509 3.1737
1.5228 1.1888 2.4749 3.1396
1.5217 1.179 2.4473 3.1136
1.5276 1.1746 2.4311 3.1022
1.5294 1.1673 2.4087 3.0827
1.5382 1.1654 2.3975 3.0777
1.5314 1.1517 2.3623 3.0417
1.5318 1.1438 2.3387 3.0206
1.5271 1.1321 2.3077 2.9898
1.5261 1.1234 2.2827 2.9667
1.5239 1.1139 2.2563 2.9417
1.5303 1.1109 2.243 2.9338
1.532 1.1044 2.2228 2.9168
1.535 1.0991 2.2049 2.9028
1.5252 1.0847 2.1689 2.8648
1.5236 1.0765 2.1452 2.8429
1.5294 1.0734 2.1319 2.8348
1.5215 1.0609 2.0999 2.8018
1.5251 1.0566 2.0842 2.7904
1.5286 1.0522 2.0684 2.7789
1.5151 1.0363 2.03 2.7369
1.5179 1.0318 2.014 2.7249
1.5191 1.0261 1.9958 2.71
1.5205 1.0208 1.9783 2.6958
1.5327 1.0227 1.9748 2.7009
1.5368 1.0193 1.961 2.6919
0.88219 0.58161 1.1148 1.536
0.88486 0.57992 1.1074 1.5315
0.88864 0.57899 1.1015 1.5291
0.89147 0.57746 1.0944 1.5251
0.88954 0.5729 1.0815 1.513
0.88406 0.56613 1.0646 1.4951
0.88726 0.56498 1.0583 1.4921
0.87851 0.55629 1.0379 1.4691
0.8768 0.55214 1.026 1.4582
0.88161 0.55213 1.0218 1.4581
0.88431 0.55081 1.0152 1.4547
0.88819 0.55026 1.01 1.4532
0.8844 0.545 0.99622 1.4393
0.89765 0.55025 1.0016 1.4532
0.89373 0.54498 0.98781 1.4393
0.91396 0.55443 1.0006 1.4642
0.91398 0.55161 0.99124 1.4568
0.91393 0.54878 0.98186 1.4493
0.93184 0.55671 0.99168 1.4703
0.93528 0.55599 0.98599 1.4683
0.94053 0.55635 0.98221 1.4693
0.94517 0.55636 0.97778 1.4693
0.94849 0.55561 0.972 1.4674
0.95145 0.55467 0.96589 1.4649
0.95438 0.55373 0.95977 1.4624
0.95891 0.55374 0.95527 1.4624
0.95946 0.55148 0.94686 1.4564
0.96654 0.55298 0.94489 1.4604
0.97038 0.55264 0.93973 1.4595
0.98612 0.55906 0.94602 1.4765
0.98862 0.55796 0.9395 1.4736
0.99975 0.56173 0.94115 1.4835
1.0042 0.56173 0.93643 1.4835
1.0198 0.56799 0.94206 1.5
1.0314 0.57197 0.94382 1.5106
1.0335 0.57065 0.93678 1.5071
1.0341 0.56858 0.92851 1.5016
1.0523 0.57616 0.93594 1.5216
1.0623 0.57919 0.93587 1.5296
1.0862 0.58978 0.94786 1.5576
1.3084 0.70756 1.131 1.8686
1.3137 0.70754 1.1248 1.8686
1.461 0.78369 1.239 2.0697
1.4533 0.77648 1.2207 2.0507
1.5096 0.80339 1.2559 2.1217
1.5087 0.79979 1.2432 2.1122
1.5171 0.80112 1.2381 2.1157
1.5064 0.79242 1.2176 2.0928
1.5034 0.78788 1.2036 2.0808
1.504 0.78523 1.1924 2.0738
1.5045 0.78258 1.1813 2.0668
1.505 0.77996 1.1703 2.0598
1.5002 0.77464 1.1552 2.0458
1.5079 0.77582 1.1499 2.0489
nan nan nan -inf
nan nan nan -inf
nan nan nan -inf
nan nan nan -inf
nan nan nan -inf
nan nan nan -inf
nan nan nan -inf
-0.99026 0.52085 0.77493 1.361
-0.97929 0.51699 0.77383 1.351
-0.98103 0.51986 0.78277 1.3585
-0.98199 0.52234 0.79115 1.3649
-0.97828 0.52236 0.79581 1.365
-0.96586 0.51772 0.79331 1.3529
-0.96214 0.51774 0.7979 1.3529
-0.95977 0.5185 0.80361 1.3549
-0.95454 0.51773 0.80693 1.3529
-0.96262 0.52421 0.82159 1.3698
-0.96117 0.52555 0.82823 1.3733
-0.97362 0.53453 0.847 1.3968
-0.97064 0.5351 0.8525 1.3983
-0.96487 0.53414 0.85553 1.3958
-0.95909 0.53318 0.85853 1.3933
-0.95673 0.53414 0.8646 1.3958
-0.96759 0.54252 0.88275 1.4177
-0.94578 0.53259 0.87107 1.3917
-0.95716 0.54136 0.88994 1.4146
-0.93882 0.53334 0.8812 1.3937
-0.94268 0.53792 0.89323 1.4057
-0.93049 0.53336 0.89006 1.3937
-0.93817 0.54021 0.90593 1.4116
-0.93717 0.54211 0.91356 1.4166
-0.93481 0.54325 0.9199 1.4196
-0.93048 0.54326 0.92433 1.4196
-0.93061 0.54591 0.93323 1.4265
-0.92621 0.54592 0.93764 1.4266
-0.91627 0.54266 0.93638 1.418
-0.91149 0.54246 0.94034 1.4175
-0.90607 0.54187 0.94362 1.416
-0.90063 0.54129 0.94687 1.4145
-0.89617 0.54131 0.95114 1.4145
-0.89414 0.5428 0.95801 1.4184
-0.88963 0.54282 0.96224 1.4185
-0.886 0.54338 0.96744 1.4199
-0.88233 0.54395 0.97262 1.4214
-0.88203 0.54662 0.98157 1.4284
-0.87921 0.54775 0.98778 1.4313
-0.87151 0.54585 0.98848 1.4264
-0.86798 0.54658 0.9939 1.4283
-0.8633 0.54659 0.99801 1.4283
-0.8586 0.5466 1.0021 1.4283
-0.85385 0.5466 1.0061 1.4283
-0.85676 0.55154 1.0193 1.4412
-0.8425 0.54543 1.012 1.4253
-0.83361 0.54276 1.011 1.4183
-0.83519 0.54693 1.0227 1.4292
-0.83037 0.54694 1.0267 1.4292
-0.81802 0.54198 1.0212 1.4163
-0.82174 0.54768 1.0358 1.4311
-0.81114 0.54386 1.0325 1.4212
-0.80174 0.54081 1.0305 1.4132
-0.803 0.54498 1.0422 1.4241
-0.79809 0.54499 1.046 1.4241
-0.79315 0.545 1.0498 1.4242
-0.78318 0.54154 1.0469 1.4151
-0.77711 0.54076 1.049 1.4131
-0.77216 0.54077 1.0527 1.4131
-0.76557 0.53963 1.0541 1.4101
-0.76537 0.54303 1.0644 1.419
-0.75552 0.5396 1.0612 1.41
-0.75052 0.53961 1.0648 1.4101
-0.74704 0.54074 1.0706 1.413
-0.74405 0.54225 1.0771 1.417
-0.73897 0.54226 1.0806 1.417
-0.73284 0.5415 1.0826 1.415
-0.71994 0.53572 1.0744 1.3999
-0.67964 0.50932 1.0247 1.3309
-0.62309 0.4703 0.94916 1.229
-0.61861 0.47031 0.95211 1.229
-0.64903 0.49705 1.0093 1.2989
-0.64427 0.49706 1.0124 1.2989
-0.65131 0.50625 1.0342 1.3229
