# .PCD v0.7 - Point Cloud Data file format
VERSION 0.7
FIELDS x y z
SIZE 4 4 4
TYPE F F F
COUNT 1 1 1
WIDTH 1198
HEIGHT 1
VIEWPOINT 0 0 0 1 0 0 0
POINTS 1198
DATA ascii
0.083222248 -0.22095013 0.87914646
0.086758189 -0.21473023 0.87795329
0.094689742 -0.21403223 0.87551355
0.10203469 -0.2123415 0.87618035
0.077449389 -0.20060849 0.87936544
0.08678703 -0.20526765 0.87881005
0.095296949 -0.2054968 0.87751764
0.10335395 -0.20483956 0.87745851
0.11073634 -0.2037635 0.87857437
0.078625977 -0.19314913 0.87901038
0.085577019 -0.19422936 0.87832868
0.095342189 -0.1945926 0.8783533
0.1040321 -0.19476484 0.87826788
0.11136281 -0.19518089 0.87937802
0.07850229 -0.18461461 0.87861961
0.084796451 -0.18490459 0.87621665
0.094979852 -0.18507726 0.87698185
0.10305393 -0.1870165 0.87857908
0.11003121 -0.18973535 0.87961018
0.078474745 -0.17624435 0.8787936
0.085248493 -0.17525445 0.8768205
0.094419032 -0.17523684 0.87754399
0.10133505 -0.17700808 0.87913549
0.078981042 -0.1698602 0.87931544
0.087045074 -0.16828811 0.87872124
0.093345761 -0.16805162 0.87866294
0.058314789 -0.22118688 0.88978589
0.06566491 -0.22141491 0.88897508
0.075217158 -0.22105582 0.88758481
0.085694179 -0.22155781 0.88438517
0.092822433 -0.22019193 0.88382381
0.059718743 -0.21858695 0.88934147
0.065992855 -0.21810526 0.88877189
0.076282129 -0.21536584 0.8868956
0.083354495 -0.21524636 0.88232732
0.092998981 -0.21851343 0.88196039
0.10379404 -0.21326238 0.88188118
0.076765366 -0.20482032 0.8863048
0.083930179 -0.20520343 0.88198715
0.092989251 -0.20280795 0.88054591
0.1070729 -0.20329979 0.8812632
0.11257109 -0.20150723 0.88478613
0.069422051 -0.19271013 0.88796943
0.075742133 -0.19488077 0.88496828
0.083323188 -0.19677445 0.88110501
0.093665831 -0.19698511 0.88050359
0.10756747 -0.19523838 0.88130128
0.11219429 -0.19484793 0.88321728
0.069316328 -0.18472083 0.88711208
0.074434578 -0.18507585 0.88437593
0.080375165 -0.18487108 0.88085479
0.098583542 -0.18280166 0.88082993
0.10600704 -0.18415345 0.88260448
0.11167128 -0.18562882 0.88423562
0.069132403 -0.17633349 0.88725603
0.07456965 -0.17513007 0.88354945
0.082225539 -0.17242257 0.88129115
0.098192737 -0.17425312 0.88129914
0.10448837 -0.1752435 0.88540649
0.11106997 -0.17848007 0.88815105
0.076866746 -0.16642912 0.88574469
0.085009821 -0.16474037 0.88487846
0.095260292 -0.16414888 0.88437659
0.10229066 -0.16646169 0.8871538
0.086755864 -0.15899515 0.88874114
0.093957864 -0.15897308 0.88851774
0.10078296 -0.15884984 0.88927203
0.024788693 -0.27245051 0.89928603
0.036897812 -0.2719211 0.89915001
0.044685293 -0.27213192 0.89890587
0.052969847 -0.27166972 0.89918816
0.027804691 -0.26391515 0.8993718
0.035832606 -0.26478243 0.89871651
0.045044634 -0.26487872 0.89793122
0.054355193 -0.26417789 0.89839005
0.061524179 -0.26224637 0.89901954
0.028721467 -0.25716534 0.89940971
0.036049444 -0.25616649 0.89900297
0.045250401 -0.25540167 0.89809406
0.054907467 -0.25513622 0.89740056
0.062091284 -0.25534964 0.89852905
0.038262099 -0.24837385 0.89952624
0.04561669 -0.24737401 0.89908051
0.05344351 -0.24771115 0.89909321
0.060145587 -0.24973729 0.89921141
0.047599625 -0.23627433 0.89918709
0.055454817 -0.23318551 0.89864701
0.063331604 -0.2316221 0.89863288
0.072892189 -0.23021981 0.89969969
0.057430878 -0.22615917 0.89468628
0.064887874 -0.22567573 0.89422596
0.071231157 -0.22466314 0.89365792
0.087023079 -0.22375882 0.89096719
0.059329472 -0.21826756 0.89147967
0.066645697 -0.21507296 0.89460284
0.072362326 -0.21332717 0.89285278
0.069124445 -0.20720117 0.89759159
0.073064826 -0.20514917 0.89473253
0.11303741 -0.20308678 0.89166367
0.036172397 -0.19021744 0.89964861
0.069211997 -0.19286159 0.89620841
0.072512247 -0.19502626 0.89453989
0.027139932 -0.18255255 0.89824802
0.035004847 -0.18355922 0.89661533
0.043093957 -0.18266702 0.89760625
0.068968266 -0.18503566 0.89573872
0.071573511 -0.18539332 0.8946026
0.01970388 -0.17534551 0.89909017
0.026579536 -0.17546909 0.89779896
0.035035171 -0.17490087 0.89476573
0.044205174 -0.1748717 0.89653969
0.050770313 -0.17385511 0.89918226
0.068808094 -0.17746468 0.89501947
0.071147531 -0.1776513 0.89433426
0.10789316 -0.17264266 0.89249194
0.11157237 -0.173513 0.89389622
0.026809819 -0.16747931 0.89892769
0.035717115 -0.16694912 0.89761966
0.043634042 -0.16656829 0.89787418
0.050680846 -0.16833153 0.89943504
0.077820957 -0.16220994 0.89260375
0.083244726 -0.16143878 0.89178044
0.097200558 -0.16086631 0.8912549
0.1050314 -0.16562727 0.89325231
0.11117722 -0.16853891 0.89763331
0.078257941 -0.15707432 0.89612281
0.085455641 -0.15582283 0.89481431
0.094961077 -0.15614903 0.89512265
0.10230454 -0.1578168 0.89645767
0.090784907 -0.14993733 0.89931285
0.04961887 -0.28027028 0.90715128
0.05166626 -0.28085992 0.90991437
0.017415812 -0.27210554 0.90788579
0.025466595 -0.2736057 0.90463966
0.035207324 -0.27428821 0.90305299
0.045259587 -0.27516228 0.90225393
0.054733075 -0.27411646 0.90325087
0.061193492 -0.27340344 0.90505451
0.017268434 -0.26492923 0.90755087
0.024595397 -0.26500812 0.90312427
0.034058426 -0.26524439 0.90103686
0.044010583 -0.26626933 0.90044123
0.056696221 -0.26642117 0.90111125
0.064587794 -0.26454946 0.90384668
0.071229748 -0.26358807 0.90652078
0.017979104 -0.25569496 0.90812713
0.024673341 -0.2547769 0.90417796
0.034360316 -0.25444552 0.90160787
0.043495942 -0.25269911 0.90079898
0.056007698 -0.25132835 0.90087318
0.065696433 -0.25478572 0.90246934
0.07409022 -0.25424057 0.90712523
0.080741107 -0.25355932 0.90913594
0.017175533 -0.24435961 0.90911067
0.025541509 -0.24551578 0.9067809
0.035049319 -0.24513564 0.90366071
0.044822745 -0.24462233 0.90194875
0.055406209 -0.24478173 0.90245956
0.064950086 -0.2450794 0.90550798
0.073455118 -0.24590474 0.9080801
0.080778621 -0.24771991 0.90916413
0.016833998 -0.23577172 0.90674448
0.021388184 -0.23627055 0.90683764
0.035542961 -0.23827828 0.90340734
0.046654686 -0.23764753 0.9016819
0.055422686 -0.23656566 0.90176642
0.065433942 -0.23533477 0.90414411
0.071679175 -0.2348368 0.90646541
0.017805304 -0.22931373 0.90167856
0.020712813 -0.22941963 0.90241975
0.068054073 -0.22922041 0.90116835
0.071272984 -0.22928759 0.90165871
0.065374367 -0.2133725 0.90506488
0.070698634 -0.2112041 0.90223783
0.068207584 -0.20710041 0.90556747
0.071584135 -0.20427772 0.90444487
0.028888499 -0.19131693 0.90567803
0.03584991 -0.19121443 0.90731663
0.043041576 -0.19104181 0.90836644
0.06883087 -0.19407439 0.90569234
0.071383759 -0.19518621 0.90471029
0.026162226 -0.18532947 0.90371615
0.035281274 -0.18801373 0.9031499
0.045271177 -0.1857852 0.90451521
0.052138321 -0.18254063 0.90719849
0.068539947 -0.18448584 0.90542126
0.070934407 -0.18513642 0.90417528
0.018781692 -0.17306201 0.90220749
0.023561139 -0.17359832 0.90145135
0.030726885 -0.17031254 0.90067244
0.047863413 -0.17508963 0.90148431
0.053332716 -0.17478293 0.90548164
0.068358272 -0.17798094 0.90477991
0.070881598 -0.17759912 0.90369797
0.11458953 -0.17050417 0.90358585
0.019353194 -0.16888469 0.90232104
0.026315171 -0.16620262 0.90359575
0.033314493 -0.16512695 0.90329999
0.046415661 -0.16689245 0.9012689
0.052124321 -0.16876265 0.90384632
0.10958787 -0.16856098 0.90062022
0.11312988 -0.16852717 0.90367836
0.078262739 -0.15552521 0.9012472
0.087201208 -0.15211447 0.9032681
0.095642716 -0.15213443 0.90347224
0.10418853 -0.15461525 0.9056769
0.11140113 -0.15687098 0.90828854
0.088829935 -0.14878808 0.90636921
0.094220705 -0.14835526 0.90709776
0.10194058 -0.14914715 0.90833926
0.03788688 -0.28166133 0.91685945
0.048393469 -0.28027463 0.91086888
0.051775277 -0.2808392 0.91105556
0.0088881776 -0.27154672 0.91374868
0.013826199 -0.27193585 0.9118613
0.027917245 -0.27843711 0.91122413
0.03494982 -0.27936926 0.91180634
0.049664199 -0.27903706 0.91051197
0.054215237 -0.27806684 0.91095364
0.061646 -0.27569613 0.91115683
0.0075927698 -0.26475784 0.91737413
0.012870075 -0.264685 0.91309303
0.078296117 -0.26137644 0.9144851
0.083060555 -0.26152581 0.91758102
0.0075784507 -0.25479901 0.91825789
0.013781136 -0.25483072 0.91368842
0.020494703 -0.25312874 0.91065669
0.077887043 -0.2554425 0.91158146
0.084447041 -0.25488082 0.91580385
0.091862805 -0.25297755 0.91898555
0.0081221508 -0.2451538 0.91760635
0.013847385 -0.24505734 0.91318333
0.022018051 -0.2442643 0.91090178
0.076649539 -0.24564722 0.9112289
0.083988212 -0.24742703 0.91592592
0.091499783 -0.24897073 0.91926032
0.0089737475 -0.23902565 0.9167397
0.013668869 -0.23877484 0.91242093
0.021712968 -0.23845892 0.91059613
0.069263756 -0.23820843 0.91042078
0.072796874 -0.23841244 0.91068625
0.093335271 -0.23636949 0.91903901
0.01937071 -0.22101302 0.91891539
0.026437534 -0.22292882 0.91642207
0.034861058 -0.22322492 0.91450465
0.044533662 -0.22214305 0.91408157
0.051334083 -0.22142726 0.91337752
0.019139893 -0.21853456 0.91941828
0.02636409 -0.21702655 0.91830713
0.03529666 -0.21541926 0.91650689
0.044937462 -0.21528015 0.91633236
0.054998085 -0.2145161 0.91645211
0.062578447 -0.21317263 0.91286975
0.037283659 -0.20811597 0.91864514
0.045422383 -0.20591411 0.91856927
0.055263888 -0.20572089 0.91820484
0.065404907 -0.20537101 0.91582584
0.070969068 -0.20291574 0.91348428
0.02833017 -0.19353198 0.91807288
0.035404574 -0.19431743 0.91506356
0.044982791 -0.19426261 0.91614741
0.053697251 -0.19498487 0.91869181
0.067399979 -0.19529539 0.91594285
0.070662677 -0.19559285 0.91330713
0.024744269 -0.18746099 0.91145468
0.047923654 -0.18829855 0.9125936
0.054813832 -0.18522382 0.91537583
0.066978484 -0.18457423 0.9158631
0.070637651 -0.18632311 0.91319335
0.057324324 -0.17524897 0.91410714
0.064426064 -0.17594019 0.91703093
0.070481233 -0.177926 0.91470087
0.11521078 -0.17057341 0.91145468
0.027232444 -0.16484106 0.91151154
0.031293247 -0.16548061 0.91104573
0.058060959 -0.16977456 0.9146083
0.061848611 -0.16932619 0.91757667
0.11666845 -0.16118316 0.91599649
0.12024146 -0.16051233 0.91542327
0.087099344 -0.1522105 0.91079456
0.096768185 -0.15085027 0.91103262
0.10685164 -0.15227272 0.91291457
0.11362475 -0.15518145 0.91551411
0.12017936 -0.1564098 0.91679823
0.08903084 -0.14824498 0.9126364
0.09637101 -0.14670964 0.91449642
0.10398267 -0.14767706 0.9160099
0.11131133 -0.14881624 0.91831136
0.036946431 -0.28217462 0.92092228
0.078327134 -0.27019304 0.92527163
0.084767103 -0.27050591 0.9283275
-0.0019711587 -0.26123303 0.92531037
0.0039405879 -0.26267624 0.92204976
0.010282516 -0.26156321 0.92028487
0.078479849 -0.26791593 0.92344677
0.085206576 -0.26536623 0.92366129
0.090391494 -0.26487699 0.92665315
-0.0025851722 -0.25499287 0.92565131
0.0034517422 -0.2550756 0.92226797
0.010576896 -0.25716537 0.92009419
0.088370308 -0.25657737 0.92152697
0.092862509 -0.25366986 0.92287552
-0.0019535427 -0.24587782 0.92740083
0.0039752945 -0.24463509 0.92368579
0.010472563 -0.24255626 0.92129433
0.088050157 -0.24619707 0.92245865
0.093961783 -0.2451756 0.92596132
0.10086507 -0.24150893 0.92829108
-0.0012880046 -0.23851168 0.92899454
0.0041359141 -0.23837622 0.92657322
0.010712297 -0.23915407 0.9207899
0.089867264 -0.23814008 0.92589796
0.094671078 -0.23794401 0.92709672
0.10010245 -0.23929536 0.92884541
0.0080425907 -0.22072288 0.92883557
0.016909732 -0.22075884 0.9237377
0.021984506 -0.22092649 0.92160749
0.0089013176 -0.21806778 0.92895252
0.015925523 -0.21553329 0.92631894
0.023977851 -0.21371049 0.92272574
0.032468904 -0.21198438 0.9213081
0.047434505 -0.21159862 0.92056751
0.051786378 -0.21191394 0.92045999
0.017793547 -0.20679285 0.92853922
0.02528277 -0.20573257 0.9267078
0.034784064 -0.20488589 0.92398
0.0443931 -0.20395973 0.92129999
0.05457272 -0.20361444 0.92074615
0.063739158 -0.20211492 0.92075503
0.019709475 -0.19816928 0.92945087
0.025969196 -0.1961059 0.92637688
0.03414366 -0.19795564 0.92320812
0.045033626 -0.19765235 0.92140603
0.055428296 -0.19483107 0.92168927
0.064685106 -0.19431978 0.92189807
0.070215315 -0.19582319 0.92118973
0.057664916 -0.18697944 0.92144316
0.064823151 -0.18547148 0.92193705
0.070610493 -0.18945083 0.92160296
0.059477527 -0.17881791 0.92023456
0.065160252 -0.17635328 0.92128044
0.070071653 -0.17990816 0.92124319
0.061174929 -0.16999112 0.92004669
0.11611044 -0.16311623 0.926054
0.10958802 -0.15028919 0.9212929
0.11550927 -0.15212381 0.92362583
0.12069288 -0.15271486 0.92455721
0.097813681 -0.14488062 0.92416006
0.1053181 -0.1451968 0.92496556
0.11282675 -0.14769275 0.92610347
0.085278451 -0.2709958 0.93213093
0.085947223 -0.26835346 0.93068874
-0.0023139282 -0.25016719 0.93039584
-0.010825217 -0.24112833 0.93867254
-0.0043080957 -0.24289195 0.93402821
0.00057605747 -0.24131832 0.93141651
0.089668512 -0.24118257 0.93062663
0.097212024 -0.24248068 0.93157971
0.10034373 -0.24291357 0.93421865
-0.010792753 -0.23865756 0.93957043
-0.0035381624 -0.23769203 0.93505865
0.001497145 -0.23656373 0.93157774
0.094772041 -0.23844914 0.93046373
0.0085633816 -0.22061262 0.93128079
0.011894668 -0.22041795 0.93122625
0.0071179527 -0.21475092 0.93505943
0.012281491 -0.21351816 0.93234473
0.0085890181 -0.20659029 0.93785125
0.01425073 -0.20476682 0.93416107
0.022549253 -0.20265993 0.93082684
0.030695703 -0.20133433 0.93046474
0.0091625461 -0.19576977 0.93953866
0.015771996 -0.19573018 0.93659395
0.022333052 -0.19627307 0.93241906
0.0092190504 -0.18910901 0.93932581
0.01344681 -0.18899179 0.93902326
0.026086684 -0.16616261 0.93792266
0.034506094 -0.16140191 0.93969434
0.046731334 -0.16164166 0.93892926
0.054900464 -0.16246633 0.93777984
0.065196276 -0.16213658 0.93824071
0.072170682 -0.16225757 0.93822676
0.11708375 -0.16421461 0.93031132
0.035850879 -0.1572085 0.93985522
0.046797827 -0.15736619 0.93928981
0.054666862 -0.15707982 0.93854034
0.063594319 -0.15875211 0.93870676
0.072160564 -0.15948255 0.93911374
0.1181438 -0.15122166 0.93013465
0.098907672 -0.14262015 0.93379724
0.10511062 -0.14200234 0.93424749
0.1137146 -0.14372602 0.93488067
0.099930763 -0.13977993 0.9383409
0.10595579 -0.1392619 0.93833208
0.11211269 -0.13924415 0.93861169
-0.011203051 -0.24348524 0.9425115
-0.0072250483 -0.24162637 0.94083744
-0.010443833 -0.23933887 0.94137639
-0.0074301939 -0.23846483 0.94090521
0.0053726262 -0.21127564 0.94173259
-0.0015057161 -0.20431811 0.94693249
0.0056020827 -0.20465584 0.94433647
0.011123657 -0.20329948 0.94148433
-8.0168247e-006 -0.19873938 0.94729722
0.0064936676 -0.19554828 0.94433933
0.012423359 -0.19466034 0.94150633
0.0083099296 -0.18911305 0.94233334
0.012986707 -0.18884863 0.94119734
0.0074159973 -0.17114654 0.94907105
0.013089038 -0.17050293 0.94802552
0.0084286453 -0.16762859 0.94867611
0.015671814 -0.16537221 0.94746852
0.024659794 -0.16378991 0.94440579
0.0344842 -0.16223693 0.94221127
0.044676319 -0.16184093 0.9418816
0.052717548 -0.16180791 0.94081831
0.065463066 -0.16156252 0.94121671
0.073257372 -0.16107896 0.94328189
0.019100646 -0.1586936 0.94838345
0.026217349 -0.1559896 0.94676274
0.034781937 -0.15446299 0.94396913
0.044835996 -0.15439902 0.94298261
0.055635568 -0.153686 0.94331002
0.064873993 -0.15638353 0.94498861
0.072315879 -0.15837204 0.94582772
0.029134654 -0.14972508 0.94892412
0.036028475 -0.14874342 0.94768983
0.045454055 -0.14812529 0.94701207
0.053519595 -0.14851943 0.94708514
0.098089226 -0.14344728 0.94651848
0.1021024 -0.14155875 0.94437593
0.11389893 -0.14103296 0.94167155
0.099257596 -0.13925858 0.94697541
0.10526303 -0.13798489 0.94513488
0.11264783 -0.13829969 0.94319242
0.046073325 -0.12323672 0.94971371
0.054220527 -0.12164863 0.94990396
0.047791988 -0.11406458 0.94962525
0.055028547 -0.1136894 0.94948804
0.065098435 -0.11401558 0.94958568
0.071288727 -0.11413133 0.94967604
0.046546668 -0.10658752 0.94962537
0.054572564 -0.10819845 0.94964379
0.065004259 -0.10802235 0.94987094
-0.00034055114 -0.20529388 0.95012879
0.0025409758 -0.20333004 0.95021474
0.0064164274 -0.17162547 0.95151138
0.01209759 -0.17099789 0.95084119
0.0081545385 -0.16712016 0.95188886
0.01510604 -0.1632739 0.95310622
0.020781621 -0.1608882 0.95239443
0.076503709 -0.16093558 0.95620859
0.081197105 -0.16282126 0.95824242
0.018499026 -0.15719444 0.95471013
0.024113147 -0.15327397 0.95443821
0.031601217 -0.15105124 0.95318377
0.058672428 -0.15106347 0.95267862
0.065391742 -0.15323851 0.95475042
0.073225439 -0.15724552 0.95531338
0.088993549 -0.15105052 0.95847791
0.093378626 -0.15067931 0.95783257
0.028143164 -0.14896795 0.95657068
0.035342291 -0.14639001 0.95528978
0.044872131 -0.14464496 0.95534956
0.054871708 -0.14605452 0.95533162
0.061343286 -0.14865373 0.95708388
0.089965582 -0.14917326 0.95981002
0.09656097 -0.1442792 0.95568514
0.10095511 -0.14166081 0.95279253
0.028471522 -0.13224934 0.95949161
0.035554629 -0.13291794 0.95880318
0.045049667 -0.13389988 0.95754927
0.053853307 -0.13282175 0.95782554
0.063479818 -0.13235518 0.95924926
0.071621098 -0.13192841 0.95915121
0.09807685 -0.13683823 0.95703596
0.10317838 -0.1357836 0.95450968
0.018453408 -0.12190922 0.95966482
0.025905464 -0.12393481 0.95871991
0.035287946 -0.12468734 0.95623827
0.045029052 -0.12512784 0.95347822
0.054823905 -0.12491929 0.95478338
0.064878598 -0.12438626 0.95632625
0.074440144 -0.12391206 0.95712417
0.080727935 -0.1211177 0.9590224
0.018439218 -0.11658622 0.95952123
0.025960185 -0.11487678 0.95789409
0.035246994 -0.11503761 0.95525587
0.044998109 -0.11506332 0.95296091
0.054705877 -0.11504544 0.95209068
0.064827703 -0.11465964 0.95238942
0.074997716 -0.11491739 0.95520854
0.080731392 -0.11574332 0.95903432
0.026704216 -0.10548361 0.9580918
0.035063878 -0.1049065 0.95455414
0.044804934 -0.10477532 0.9526704
0.054742884 -0.10488163 0.95246577
0.065083116 -0.10475551 0.95400012
0.073421314 -0.10580351 0.95694029
0.027624868 -0.096211202 0.95883018
0.03536984 -0.09602984 0.95736015
0.045067217 -0.095344052 0.9555518
0.054840405 -0.095281184 0.95528382
0.064489491 -0.095681764 0.95723766
0.07202407 -0.097116515 0.95876759
0.029375806 -0.088837162 0.9594335
0.035675015 -0.088948764 0.95949709
0.046437189 -0.086833261 0.95882434
0.054419447 -0.086938217 0.95887446
0.063091934 -0.08778704 0.95921975
0.070350945 -0.088784762 0.95981371
0.015057084 -0.16275524 0.96072096
0.078229815 -0.16113737 0.96453243
0.08173167 -0.16134584 0.96609288
0.018410098 -0.15344614 0.96658462
0.022427518 -0.15202181 0.96430266
0.067033492 -0.15169658 0.96303558
0.074247189 -0.15544432 0.96547556
0.086757958 -0.15352641 0.96744007
0.091743276 -0.15211327 0.96448207
0.019396314 -0.14472575 0.96898586
0.025586352 -0.14585841 0.96615738
0.033545163 -0.14372802 0.96264452
0.045560084 -0.14163023 0.96144438
0.056311902 -0.14308925 0.96215594
0.065065637 -0.14536296 0.96501118
0.073971011 -0.14425078 0.96811157
0.086197212 -0.14461577 0.96714932
0.093005568 -0.14503016 0.96305948
0.017858477 -0.13336781 0.96775866
0.02456462 -0.13520403 0.96452719
0.034599464 -0.13597746 0.96185631
0.044791631 -0.13734737 0.96133631
0.055601727 -0.13656597 0.96197164
0.065036289 -0.13530986 0.96270102
0.075125061 -0.13515614 0.96504247
0.085116737 -0.13526027 0.96788824
0.094414443 -0.13428903 0.96418405
0.10208655 -0.1327448 0.96281797
0.0097578261 -0.12173256 0.96944654
0.016147476 -0.12455512 0.96571904
0.023969134 -0.12579656 0.96195942
0.032337487 -0.12755668 0.96085256
0.058554344 -0.12926692 0.96042842
0.065126583 -0.12832792 0.96087307
0.077120259 -0.12637696 0.96224082
0.082512945 -0.12478452 0.9664343
0.093240336 -0.12922487 0.96810454
0.10039439 -0.12999368 0.9622522
0.0094528589 -0.11639965 0.96901673
0.015322507 -0.11489405 0.96503222
0.022750247 -0.11459483 0.96145874
0.078971326 -0.11421426 0.96230036
0.082629241 -0.11488109 0.96609318
0.016495079 -0.10513988 0.96599919
0.023111977 -0.10444197 0.96213859
0.031161075 -0.10213004 0.9603914
0.069771424 -0.10174459 0.96001339
0.077329762 -0.10430516 0.96309996
0.081967779 -0.10546813 0.96729106
0.017732255 -0.095689967 0.96712762
0.024154771 -0.094658829 0.96346796
0.034568686 -0.092692912 0.96124285
0.043327384 -0.091640577 0.96115494
0.056086719 -0.091205575 0.9608171
0.066478588 -0.092610262 0.96128488
0.075584844 -0.094690986 0.96380615
0.081956431 -0.095380746 0.96782511
-0.03179523 -0.082003258 0.96952963
-0.025661223 -0.082943641 0.96940064
-0.019613929 -0.081696108 0.96933061
0.01892736 -0.087864518 0.96886337
0.025554229 -0.085477144 0.96604753
0.034867778 -0.084766202 0.96417904
0.044738006 -0.084364004 0.96221876
0.055300899 -0.084107667 0.96234107
0.065171361 -0.084446944 0.9629606
0.074243061 -0.085312799 0.96609843
0.080855139 -0.087673493 0.96865797
-0.03181348 -0.076264605 0.96958953
-0.025487483 -0.07534951 0.96939468
-0.019386029 -0.074958391 0.96962345
0.027090032 -0.077975839 0.9685697
0.0357529 -0.077302046 0.96782202
0.045444641 -0.075086564 0.96580207
0.054479025 -0.075545326 0.96653533
0.065122165 -0.077173404 0.96724731
0.072456963 -0.07827653 0.96825677
-0.02395873 -0.06687241 0.9695009
-0.019085698 -0.065412015 0.96966082
0.047603291 -0.06919837 0.96878839
0.053311791 -0.069132671 0.96896482
0.016968289 -0.16039316 0.97740728
0.079295002 -0.1609474 0.97170067
0.08271049 -0.16097853 0.97277439
0.016686738 -0.15465657 0.97563469
0.02092864 -0.15222219 0.97216839
0.077052988 -0.15438378 0.9720661
0.083776362 -0.15552431 0.97240555
0.090184428 -0.15638883 0.9703539
0.016227851 -0.1448908 0.97552806
0.022414723 -0.14495835 0.97177422
0.069273643 -0.14748642 0.97040075
0.076105975 -0.14598902 0.97139251
0.0825027 -0.14565246 0.97116911
0.0092093628 -0.13275428 0.97890943
0.014605721 -0.13513507 0.9749499
0.021324869 -0.13793601 0.97116029
0.07918407 -0.13895133 0.97036713
0.085493803 -0.13381355 0.97118473
0.092856385 -0.13110249 0.97250527
0.0077296421 -0.12422673 0.97606301
0.012481632 -0.12621227 0.97348696
0.086933345 -0.12450144 0.973773
0.092240043 -0.12730551 0.97483492
0.0071014669 -0.11471261 0.97553736
0.011755089 -0.1141935 0.97235304
0.087075658 -0.11481349 0.97401994
0.091450997 -0.11388555 0.97759849
-0.032865599 -0.10072759 0.97966969
-0.026195124 -0.10044222 0.97939157
0.0080880262 -0.10571186 0.97764134
0.012511006 -0.10451766 0.97398299
0.086428128 -0.10488696 0.97448289
0.091698922 -0.10591271 0.97843266
-0.051246092 -0.092000462 0.97936201
-0.044198517 -0.092743874 0.9786796
-0.034629073 -0.093794823 0.97722769
-0.025409453 -0.093930192 0.97673017
-0.018421823 -0.092163667 0.97821593
0.0091086673 -0.095291525 0.97858912
0.014123006 -0.094797492 0.97484684
0.02144156 -0.092408031 0.97016907
0.079836011 -0.090967298 0.97038156
0.085947029 -0.094795711 0.9746601
0.091030747 -0.095897019 0.97870147
-0.051676732 -0.085034057 0.9792583
-0.04443147 -0.084820755 0.97741479
-0.035186123 -0.085159376 0.9735865
-0.024822596 -0.085544832 0.97260129
-0.017049873 -0.084489711 0.97598124
0.0094049163 -0.087617256 0.97912443
0.016012123 -0.085389435 0.97584844
0.022188867 -0.083502129 0.97248203
0.033327196 -0.080389336 0.97043198
0.077840939 -0.083023734 0.97204316
0.084079564 -0.085323296 0.97563612
0.09049689 -0.088419214 0.9789564
-0.051284112 -0.076164879 0.97911388
-0.044698369 -0.074956939 0.97643977
-0.035284728 -0.074954987 0.97285461
-0.024597162 -0.074683316 0.97190917
-0.017102575 -0.075265646 0.9756043
0.018352753 -0.077300355 0.97762018
0.025010569 -0.074590869 0.97476244
0.034835678 -0.073076278 0.97369975
0.042820469 -0.071724407 0.97268897
0.056698151 -0.072259538 0.9715293
0.065497562 -0.072878614 0.97265774
0.074928626 -0.074982725 0.97505838
0.082306072 -0.077799834 0.97777396
-0.050193023 -0.067921519 0.97957271
-0.043992873 -0.065449044 0.9775185
-0.035066713 -0.064952143 0.97499138
-0.025227975 -0.064804569 0.97249043
-0.018227607 -0.066630289 0.97569925
0.027019052 -0.069034629 0.9785347
0.035686433 -0.068932772 0.97799861
0.045854196 -0.066759653 0.97560894
0.054913361 -0.066092618 0.97538006
0.064273931 -0.067690469 0.97662061
0.072370969 -0.068773404 0.97819865
-0.042556658 -0.057927795 0.97885555
-0.034220811 -0.056771066 0.97804254
-0.025149995 -0.055741783 0.97623467
-0.019648151 -0.055514131 0.97629994
-0.030197999 -0.049537964 0.97952914
-0.025322063 -0.048806589 0.97927409
0.0087726628 -0.16413678 0.98889637
0.012725605 -0.16230603 0.986893
-0.0009688409 -0.15125354 0.98966891
0.0069802296 -0.15374675 0.9884876
0.013346302 -0.15503289 0.98459047
-0.00065939873 -0.14592238 0.98950005
0.0062538139 -0.14477094 0.98705691
0.012223765 -0.14554331 0.98299104
0.006721064 -0.13493702 0.9859544
0.011574366 -0.13584469 0.98215765
0.0060432069 -0.12770605 0.98429072
0.010734709 -0.12922919 0.98103827
0.08997798 -0.12490408 0.98018479
0.091507003 -0.125745 0.98134649
-0.040918268 -0.11082172 0.98988134
-0.033763807 -0.11153968 0.98932374
-0.026686529 -0.11113676 0.9891544
0.0052651605 -0.11147216 0.98138577
0.089813851 -0.11664094 0.98059338
0.0929548 -0.11418543 0.98340285
-0.053172395 -0.10220309 0.9874509
-0.044606857 -0.10301618 0.98763883
-0.034848083 -0.10449568 0.98617357
-0.025157902 -0.10442962 0.98576975
-0.017909162 -0.10288131 0.9878881
0.0057059457 -0.10434799 0.98254883
0.010574069 -0.1042454 0.98098648
0.089271717 -0.1022089 0.98061544
0.093097791 -0.10421057 0.98269391
-0.062097657 -0.093319207 0.98547381
-0.054987244 -0.095065758 0.98377359
-0.045238845 -0.096353844 0.98293197
-0.035836697 -0.097675204 0.98195022
-0.023704272 -0.097745538 0.9819684
-0.015351241 -0.094798379 0.98550522
-0.0070090275 -0.093493924 0.98829657
0.0056258142 -0.095428072 0.98423481
0.011254727 -0.094641529 0.98154366
0.089152947 -0.094188459 0.98125362
0.092092276 -0.095641062 0.98361713
-0.062758997 -0.085045174 0.98745924
-0.055740371 -0.084931023 0.9834615
-0.046820574 -0.085689709 0.98086822
-0.012959597 -0.085163169 0.98422676
-0.008838065 -0.085157849 0.98802882
0.0068774535 -0.085727923 0.98528874
0.012721983 -0.083161116 0.98293126
0.087937519 -0.084181897 0.98305565
0.09111914 -0.086739525 0.98394555
-0.062379289 -0.07596913 0.98849702
-0.055245496 -0.074802242 0.98468006
-0.048238352 -0.073980287 0.98122239
-0.013556303 -0.074841365 0.98488986
-0.009248374 -0.076586522 0.98839527
0.0087337596 -0.078638397 0.98793793
0.015607926 -0.075462259 0.98540992
0.022384958 -0.07211487 0.98292732
0.035020113 -0.070580259 0.98184144
0.041172571 -0.070190012 0.98147392
0.07788112 -0.072085194 0.9830187
0.084149927 -0.075022675 0.98505384
0.090057589 -0.075949773 0.98907447
-0.061067056 -0.067408204 0.98874342
-0.054195065 -0.065398633 0.98591113
-0.047509797 -0.063991822 0.98214728
-0.037862439 -0.060863983 0.98055273
-0.015807038 -0.067835271 0.98498416
0.018479664 -0.068571158 0.98740178
0.025473515 -0.067121312 0.98547268
0.035196576 -0.067200929 0.98515213
0.043589223 -0.064870559 0.98393071
0.055011287 -0.062467184 0.98454314
0.064572871 -0.064627141 0.98493659
0.074164592 -0.067326255 0.98546845
0.08078254 -0.068822533 0.98806739
-0.052100919 -0.056324821 0.98617482
-0.04519539 -0.05487588 0.98364109
-0.034907918 -0.053942293 0.98222739
-0.02462399 -0.053016368 0.98119813
0.049574595 -0.059771609 0.98503578
0.053596046 -0.059636429 0.98807067
-0.051033523 -0.049316444 0.98761052
-0.042624228 -0.048631623 0.98603362
-0.034755856 -0.049905431 0.98391271
-0.023896653 -0.049868584 0.9816497
-0.0027215637 -0.16184017 0.99599528
0.0054315492 -0.1632276 0.99303329
0.0114367 -0.1634441 0.9916963
-0.012472769 -0.15295702 0.99855101
-0.0047248858 -0.15467298 0.99527299
0.0041297893 -0.15579134 0.9919095
0.010851228 -0.15717232 0.99122959
-0.013109261 -0.14483419 0.99828362
-0.0048924107 -0.14492175 0.9946909
0.002933539 -0.14524916 0.99157572
-0.012810994 -0.13712275 0.99906796
-0.0038593295 -0.13587897 0.99696749
0.0026678459 -0.1346782 0.99318576
-0.04192286 -0.12231992 0.99897742
-0.03509846 -0.12284142 0.99824673
-0.026307499 -0.12175814 0.99862891
-0.01764538 -0.12140803 0.99957502
-0.00092620915 -0.12840843 0.99852359
0.0026704557 -0.12832089 0.99504828
-0.050789852 -0.11129671 0.99503666
-0.044036455 -0.11402687 0.99637663
-0.035139568 -0.11546812 0.99402279
-0.024981026 -0.11523718 0.99475527
-0.016433218 -0.11377101 0.99748141
-0.0093003651 -0.11205675 0.9994781
-0.0517167 -0.10601176 0.99188393
-0.045382623 -0.10714899 0.99227697
-0.036467794 -0.10807533 0.99122846
-0.023321804 -0.10813438 0.99153399
-0.015092494 -0.10552612 0.9942258
-0.0092164949 -0.10588383 0.99736023
0.095070332 -0.10069092 0.99129987
-0.012719552 -0.097008124 0.99143082
-0.0069500878 -0.093372889 0.99110466
0.0028417222 -0.096809059 0.99034041
0.094172478 -0.096752487 0.99049568
-0.064207777 -0.082548074 0.99100864
-0.059605811 -0.084728628 0.99036682
-0.010803978 -0.084517822 0.99098676
-0.005698863 -0.083931841 0.99501908
0.0043431371 -0.082641281 0.99469262
0.010581936 -0.08054217 0.99149364
0.089188978 -0.081839867 0.99118847
0.091435097 -0.083901808 0.99083215
-0.063708983 -0.075955153 0.99129385
-0.058773674 -0.073093727 0.99047244
-0.011542786 -0.073108546 0.9920401
-0.0054560332 -0.07538978 0.9956817
0.0060280245 -0.075494483 0.99644786
0.012822364 -0.073838055 0.99316084
0.078936175 -0.070498288 0.99069923
0.085826077 -0.072117351 0.99388194
0.078211308 -0.075402588 0.99486089
-0.061820555 -0.067332603 0.99117512
-0.054988995 -0.066814862 0.99047422
-0.012832819 -0.065968409 0.99507105
-0.0048738536 -0.065531179 0.99536926
0.0048587606 -0.065290362 0.99704802
0.015111549 -0.066305541 0.99581444
0.024861798 -0.064200759 0.9948594
0.0346849 -0.064211488 0.99474293
0.040867224 -0.063997246 0.99390817
0.056984503 -0.061015759 0.99351031
0.064626291 -0.062164061 0.99443805
0.074803628 -0.064832099 0.99490744
0.082248673 -0.068247795 0.99621153
-0.052509032 -0.054825746 0.9903332
-0.047990404 -0.0508544 0.99311996
-0.01120873 -0.058239009 0.99865103
-0.0041424143 -0.057149563 0.99653137
0.0023834375 -0.058061305 0.9975751
0.038420312 -0.059463315 0.99922538
0.04088369 -0.05999599 0.99873137
0.055976707 -0.059421308 0.99558812
0.063046843 -0.059558012 0.99745858
0.071757294 -0.059600323 0.99891883
-0.050565954 -0.049028829 0.99197119
-0.044231277 -0.048829723 0.99153715
-0.038942061 -0.048119437 0.99179685
-0.013724996 -0.0015478812 0.99901193
-0.0075378884 -0.0018227475 0.99929607
-0.020748489 0.0055023856 0.99953973
-0.014078384 0.0036340263 0.99802864
-0.0076863435 0.0045419782 0.99896514
-0.014132388 0.012018211 0.99948305
-0.0090284431 0.011257773 0.99936891
-0.005179923 -0.1612799 1.0019687
-0.021851569 -0.15207189 1.0064095
-0.015940674 -0.15345192 1.0031252
-0.0079791304 -0.15697566 1.0025413
-0.030819524 -0.1419706 1.0079296
-0.023943666 -0.14443314 1.0058079
-0.016589608 -0.1452392 1.0020393
-0.0089120185 -0.14442216 1.0004481
-0.033241577 -0.13342258 1.0044763
-0.02492653 -0.13511419 1.00486
-0.015582683 -0.13453512 1.002492
-0.0062669944 -0.13311934 1.0015163
0.0018615816 -0.1313304 1.0007405
-0.042962823 -0.12199587 1.001453
-0.034372486 -0.126403 1.0019225
-0.024834866 -0.12561831 1.0025573
-0.014995495 -0.12497413 1.0031024
-0.0060679512 -0.12614542 1.0032314
0.0014583245 -0.12842457 1.0010351
-0.044495679 -0.11740346 1.0012094
-0.039346784 -0.1187228 1.0007266
-0.022700224 -0.11833987 1.0008687
-0.013741376 -0.11629371 1.0016521
-0.0086878892 -0.11618041 1.0024014
-0.012115573 -0.10824724 1.0010607
-0.0091203013 -0.10822091 1.0010968
-0.0020094514 -0.082742184 1.0013201
0.001504131 -0.08383587 1.0012121
-0.0017317019 -0.075881064 1.0011549
0.0039700721 -0.07568755 1.0012065
0.088374265 -0.070919976 1.0026788
0.087658748 -0.072020918 1.0038294
-0.012237066 -0.06244152 1.0010954
-0.0090115136 -0.06188152 1.0006725
0.0066977595 -0.063033924 1.0016297
0.01555422 -0.06204588 1.0029808
0.024908204 -0.061738133 1.0031694
0.03413545 -0.061423913 1.0026535
0.04125813 -0.060949907 1.002208
0.057648946 -0.06045375 1.0025052
0.06544783 -0.060650032 1.002194
0.076216288 -0.061834358 1.0027398
0.084596559 -0.065030076 1.0048535
0.088883966 -0.067070074 1.0060865
-0.012225616 -0.0587085 1.0014834
-0.0016286464 -0.053677436 1.0039681
0.005021987 -0.056117512 1.0050162
0.014452466 -0.058849234 1.0068309
0.025978936 -0.059283029 1.0068557
0.035240389 -0.05933255 1.0060526
0.039481495 -0.060591258 1.0049223
0.057066757 -0.058224227 1.0051626
0.064672992 -0.057930265 1.0051204
0.074301243 -0.057773244 1.0062177
0.0824119 -0.058077231 1.0079745
-0.0011606663 -0.049866065 1.0090899
0.0043907589 -0.049502384 1.0095367
-0.022780873 -0.012330469 1.0081667
-0.014553516 -0.014848017 1.0060562
-0.0052302764 -0.014298435 1.0068208
0.0013143398 -0.010990035 1.0088891
-0.031901743 -0.0029202399 1.0085064
-0.023931693 -0.0065910784 1.0051036
-0.014793552 -0.007923523 1.0021212
-0.0039219367 -0.007801862 1.0029517
0.0029213389 -0.0084737251 1.0055169
-0.032870203 0.0053105345 1.0073079
-0.024040978 0.0020429948 1.0023636
-0.014302804 0.00057284482 0.99935395
-0.0031549442 0.0014621937 1.0014703
0.0037205794 0.0013860115 1.0054983
-0.032652721 0.01385937 1.007884
-0.024150452 0.012289196 1.0036074
-0.013788235 0.011210456 1.0008279
-0.0038240026 0.012095772 1.0036391
0.0031137415 0.0094086584 1.0055387
-0.031200642 0.020917753 1.0088849
-0.023767449 0.02025144 1.0055339
-0.013715856 0.019921338 1.0039551
-0.0053444547 0.019635968 1.0066278
0.0014533177 0.020772524 1.0094335
-0.011214386 -0.16031347 1.0114692
-0.0083988868 -0.16055861 1.0105917
-0.022817131 -0.15304308 1.0140049
-0.012838123 -0.15784715 1.0113274
-0.0085433889 -0.15931988 1.0116218
-0.031034505 -0.14143798 1.0102772
-0.027486401 -0.14353609 1.0104829
-0.030495703 -0.13949054 1.0100129
-0.027926028 -0.13913879 1.0101016
0.017820939 -0.060108811 1.0110114
0.025049595 -0.060670715 1.010534
0.031765297 -0.060072556 1.0108252
0.087862372 -0.062087543 1.0117842
0.092495732 -0.063577347 1.0145252
-0.0020345151 -0.050873209 1.0130212
0.0064748204 -0.052927498 1.0112716
0.015548401 -0.054387402 1.0122937
0.025385752 -0.055246305 1.0128824
0.03447381 -0.054751489 1.0144119
0.040961493 -0.05447825 1.0144658
0.056579199 -0.054723103 1.0151405
0.064778365 -0.053956885 1.0137484
0.074560553 -0.053638626 1.0124773
0.085037798 -0.055094395 1.0140156
0.091829494 -0.057375386 1.016773
-0.0021830832 -0.048067175 1.0163653
0.005690373 -0.046736456 1.0156054
0.015143927 -0.045892023 1.0155907
0.024696695 -0.047510594 1.0163443
0.03270562 -0.049480453 1.0178643
0.05746064 -0.049241219 1.0189954
0.065456718 -0.049551439 1.0174438
0.075151652 -0.047268163 1.0164945
0.083710372 -0.046867203 1.0171728
0.086517796 -0.054969139 1.0159223
0.0078475699 -0.038282279 1.0192645
0.013929508 -0.038621623 1.0189296
0.02016902 -0.039415836 1.0193037
0.077672124 -0.03912551 1.0193617
0.082367174 -0.039343547 1.0194643
-0.025868751 -0.020355761 1.0135323
-0.010870634 -0.021588333 1.0166129
-0.0049579451 -0.021356724 1.0180438
0.0021654216 -0.021212198 1.0188054
-0.031692009 -0.011901106 1.0159514
-0.025642652 -0.015069319 1.0130585
-0.012953104 -0.01886091 1.0111148
-0.0036466564 -0.018845033 1.0130469
0.0040142979 -0.014994443 1.0159831
0.011320838 -0.011671319 1.0193268
0.088172078 -0.011299253 1.0195338
0.092319041 -0.01135692 1.0196052
-0.040703226 -0.0020513588 1.015439
-0.034059562 -0.0062050484 1.0127299
-0.025489438 -0.012399716 1.0092653
-0.0011403065 -0.0090932138 1.0105217
0.0059627206 -0.0063762027 1.0139918
0.012596819 -0.0079259295 1.0163217
0.088390902 -0.0068663782 1.019546
0.092814006 -0.0068023414 1.0194144
-0.040708285 0.0038373061 1.0168911
-0.035956603 0.0029137072 1.0124276
-0.028878003 0.00021135807 1.0101376
0.0069210296 0.0041152881 1.0137986
0.012581528 0.0002554344 1.0156387
-0.040132366 0.014100055 1.0187212
-0.035482209 0.013902963 1.0134801
-0.013698672 -0.0066888514 0.99636716
-0.0018586474 0.018614303 1.0110849
0.0055848649 0.012929508 1.0137849
0.010445467 0.011587813 1.0186917
-0.030406028 0.015636586 1.0086915
-0.011899004 -0.0052708164 0.99425256
-0.0028188271 0.019655749 1.0099146
0.0056645242 0.01415584 1.0099252
-0.022739179 -0.15476391 1.0207968
0.095944375 -0.06227462 1.0213393
-0.0024075508 -0.050464511 1.0213947
0.029252835 -0.050174922 1.0206763
0.036696721 -0.053225104 1.0210706
0.040959876 -0.051555276 1.0228261
0.056752954 -0.053795405 1.0194634
0.063200638 -0.050840016 1.0208999
0.089373484 -0.051403604 1.0207824
0.093965434 -0.054328069 1.0227692
-0.011184218 -0.042217389 1.028302
-0.0035794913 -0.044736017 1.0238378
0.0046639172 -0.044525962 1.0204903
0.016194122 -0.041322164 1.0211886
0.026102025 -0.043469582 1.0216134
0.034299176 -0.045930743 1.0227432
0.040418182 -0.049059793 1.0243206
0.057782926 -0.046316318 1.0245321
0.064502753 -0.045432936 1.0236431
0.074376419 -0.043180574 1.0211809
0.08670482 -0.043597836 1.0221376
0.093114421 -0.046449903 1.025465
0.10075641 -0.045667402 1.0293629
-0.010796973 -0.035905458 1.029408
-0.0042439755 -0.035616983 1.0268604
0.0055926517 -0.03630862 1.0227855
0.015518241 -0.03568317 1.023038
0.025638139 -0.036488593 1.0243465
0.032912489 -0.038054783 1.0239898
0.067920133 -0.037568159 1.0273663
0.075023405 -0.037162494 1.0250868
0.084101334 -0.038349785 1.0248863
0.091243125 -0.039334033 1.0270306
-0.010890911 -0.025703276 1.0260935
-0.0046776547 -0.026470885 1.0237954
0.0053052772 -0.027789839 1.0226532
0.01482548 -0.027189935 1.0257945
0.023645163 -0.030025383 1.0264701
0.030757507 -0.029697236 1.0291806
0.077046506 -0.021841215 1.0292907
0.086269997 -0.021281481 1.0286535
0.094027512 -0.021425549 1.028549
0.10211738 -0.02096441 1.0288074
-0.031986758 -0.012797098 1.0212638
-0.026412696 -0.015669644 1.0209455
-0.0034936741 -0.019447763 1.0208499
0.0071109259 -0.019649342 1.0206792
0.015240592 -0.016546249 1.0247411
0.021697761 -0.020482019 1.0257879
0.069445193 -0.010858536 1.0296396
0.076373436 -0.01511291 1.0270045
0.085027799 -0.016440595 1.0244192
0.094722427 -0.01599703 1.0248615
0.10313936 -0.015375968 1.0267237
-0.031047285 -0.0091477633 1.0200635
-0.029928587 -0.0095041096 1.0210598
0.0090115601 -0.0072513642 1.0207641
0.01588285 -0.0066445372 1.023671
0.0206009 -0.013214105 1.0244106
0.068667121 -0.0037793301 1.02931
0.075028405 -0.0069671171 1.0260298
0.084410734 -0.0077182199 1.0224093
0.09506271 -0.0067439643 1.0222591
0.10346888 -0.0079427902 1.0256826
0.11049826 -0.0060976502 1.0289931
-0.041072853 0.0056652329 1.0208267
-0.038533535 0.0059142001 1.0213393
0.0091665387 0.0080939028 1.0214924
0.014670131 0.0029835203 1.0240357
0.02048368 0.0024914667 1.0291132
0.069125719 0.0011328639 1.029
0.076000981 0.0020869093 1.0270989
0.084669866 0.0010994285 1.0253829
0.093689203 0.00012376861 1.025396
0.10267205 0.002117604 1.0286605
-0.040994186 0.015206075 1.0257945
-0.038464461 0.015409609 1.0239908
0.0080940872 0.015119926 1.0236065
0.013052633 0.0089775082 1.023689
0.078348078 0.01192017 1.0293444
0.084879458 0.010701017 1.027658
0.092260577 0.011893493 1.0290569
0.0072853565 0.020302072 1.0216131
0.098171704 -0.050446209 1.0340341
0.10117489 -0.050312102 1.0354789
-0.010718218 -0.041848551 1.0306301
-0.0071260752 -0.04138276 1.0308399
0.05865274 -0.041891936 1.0313916
0.062957361 -0.042436834 1.0317439
0.096889451 -0.044601347 1.0321715
0.10118312 -0.044562943 1.0341878
-0.011718729 -0.034580167 1.031683
-0.006782664 -0.038718421 1.0293403
0.027719282 -0.030964861 1.0310953
0.033256039 -0.033429302 1.0302932
0.059164349 -0.037517644 1.0377452
0.065461829 -0.036317691 1.0341972
0.074184977 -0.033759333 1.0309994
0.085471377 -0.033543535 1.0322367
0.094182789 -0.036361888 1.0348427
0.096837074 -0.045034382 1.0333308
-0.011530196 -0.028577417 1.0315928
-0.0079032676 -0.028719179 1.0315838
0.01786701 -0.023285739 1.0307826
0.026213923 -0.025652951 1.032747
0.033042677 -0.028094804 1.0350281
0.067323767 -0.026418539 1.0370859
0.0745802 -0.026617374 1.0337439
0.0846081 -0.027090009 1.0341369
0.094550505 -0.026362484 1.0342401
0.10182236 -0.022495337 1.0354873
0.018548105 -0.015692834 1.0309616
0.024693001 -0.016994165 1.0340981
0.031473052 -0.017417602 1.0390364
0.067116201 -0.014297577 1.036533
0.072613396 -0.019305101 1.0306426
0.083569244 -0.023512097 1.0294045
0.094002888 -0.024039691 1.028553
0.10520455 -0.016825065 1.0312136
0.11079652 -0.013256257 1.0335468
0.018868178 -0.0040398045 1.0318694
0.023743071 -0.0071096243 1.034514
0.030597419 -0.0093037039 1.0398576
0.065414444 -0.0062134815 1.0342898
0.071261846 -0.012045776 1.0279217
0.10732342 -0.0051851217 1.0310419
0.11000112 -0.0083820736 1.0305371
0.017592648 0.0054884646 1.033838
0.023273755 -7.0877039e-005 1.0346437
0.066550769 0.0031945908 1.0355151
0.073464386 0.0029604479 1.0305777
0.084500566 0.0057535083 1.0290871
0.096155107 0.0057022013 1.0304446
0.10411227 0.0020654749 1.0312537
0.10979047 -0.0039151246 1.0299703
-0.042052198 0.014508457 1.0330859
-0.039303418 0.01431145 1.0324676
0.0097665787 0.014197379 1.030906
0.015187412 0.011931403 1.0337952
0.02076697 0.010858485 1.0388752
0.069006942 0.011033833 1.0386446
0.074863292 0.010525713 1.0326113
0.085595019 0.0064219637 1.026705
0.09426862 0.0094732633 1.0304115
0.10324252 0.010613108 1.034178
0.0591457 -0.033594146 1.0423398
0.062953249 -0.03533677 1.0399657
0.097782679 -0.033110954 1.0417272
0.10004952 -0.036777928 1.0406262
0.029151196 -0.021242168 1.0406315
0.034774259 -0.025571242 1.0400065
0.059085052 -0.026376309 1.0476245
0.064271368 -0.026270701 1.0431179
0.070096098 -0.022246014 1.0409492
0.084465094 -0.026325535 1.0404238
0.097783998 -0.028224362 1.0414686
0.10087717 -0.030372119 1.0399191
0.028267931 -0.013836312 1.0419714
0.033818625 -0.017852351 1.0431869
0.064598665 -0.019052312 1.0413775
0.070085257 -0.019800663 1.0406961
0.027755463 -0.0052458551 1.0434877
0.031879716 -0.011342159 1.0427406
0.059753586 -0.0011152349 1.0456526
0.062622413 -0.0044929255 1.0420434
0.01903021 0.0079188468 1.0410289
0.025475893 0.0044862335 1.0429341
0.030438164 0.0046859779 1.0465044
0.059558649 0.0035636178 1.0466948
0.063639678 0.0041303053 1.0429224
0.070383064 0.0084941154 1.0408043
0.018707171 0.011295578 1.041397
0.02487828 0.0093297018 1.0430794
0.066111848 0.0059163528 1.0387113
0.071267456 0.010472983 1.0400971
0.038865935 -0.020195425 1.0535007
0.058007795 -0.024578605 1.0519722
0.062583402 -0.03046564 1.0477756
0.035577212 -0.01899012 1.0505705
0.028830025 -0.0040027238 1.0506066
0.03121132 -0.0071412646 1.0510653
0.06024909 -0.0017144755 1.0505265
0.028498441 0.0075912997 1.0531869
0.031925384 0.0054675671 1.0537733
0.058953308 0.0052527506 1.0546163
0.061590716 0.0058175591 1.0528364
0.027952444 0.010752 1.0518256
0.030989865 0.010925899 1.0533121
0.02974404 0.0063800565 1.0601971
0.032155272 0.0065591936 1.0617431
0.057637617 0.0045223003 1.0641767
0.06096822 0.0050549372 1.0622033
0.057300985 0.0042306371 1.0708086
