# .PCD v0.7 - Point Cloud Data file format
VERSION 0.7
FIELDS x y z
SIZE 4 4 4
TYPE F F F
COUNT 1 1 1
WIDTH 1393
HEIGHT 1
VIEWPOINT 0 0 0 1 0 0 0
POINTS 1393
DATA ascii
0.36536175 -0.37942663 1.080604
0.40528849 -0.45556861 1.1361368
0.36461794 -0.3862285 1.0902697
0.42526472 -0.45453525 1.135816
0.40650588 -0.4300178 1.1203994
0.41845462 -0.42126971 1.1128216
0.43535924 -0.43426141 1.1233945
0.44110912 -0.41250622 1.1044365
0.47419921 -0.45463228 1.1346205
0.4650197 -0.42285883 1.111034
0.47665316 -0.40249872 1.1141301
0.075782992 0.2253115 0.65220857
-0.38298446 -0.44466123 1.1380932
-0.37499854 -0.44552839 1.1376669
-0.36382103 -0.44552198 1.1387167
-0.35634574 -0.44492728 1.1383902
-0.3458035 -0.44269392 1.1381989
-0.30063081 -0.37820259 1.1001724
-0.32503477 -0.44558167 1.1388482
-0.31515262 -0.44551784 1.138666
-0.30336824 -0.44575813 1.1391995
-0.29881057 -0.44150484 1.1382098
-0.18020427 -0.44734421 1.1375376
-0.17010574 -0.44900286 1.1392355
-0.16412096 -0.44503003 1.1386689
-0.15336259 -0.44580767 1.1389565
-0.14569913 -0.44504154 1.1368053
-0.13398936 -0.44546038 1.1360849
-0.13004138 -0.41871458 1.1130885
-0.10606438 -0.41758338 1.1127393
-0.074600786 -0.4334664 1.1345474
-0.059057366 -0.41078573 1.1145568
-0.086189218 -0.44491756 1.1336761
-0.038327735 -0.40641522 1.1114415
-0.02707658 -0.40808445 1.1112409
-0.054732334 -0.4456442 1.1341083
-0.011526142 -0.40903136 1.1124661
0.0052592279 -0.40195721 1.1078824
0.0083425716 -0.43276981 1.1336272
-0.0021312288 -0.40903574 1.1045755
0.02872742 -0.43092099 1.1334695
0.052297868 -0.37276527 1.0898888
0.023678828 -0.41504341 1.1096462
0.051973838 -0.43394125 1.134881
0.071176246 -0.43123668 1.1342635
0.044864688 -0.4444904 1.1362485
0.092103437 -0.43047681 1.133042
0.098292351 -0.38074991 1.0942286
0.075561598 -0.44575253 1.1341645
0.1032538 -0.40491202 1.1103882
0.093466327 -0.37402755 1.0926597
0.12882258 -0.43431002 1.1332923
0.12747356 -0.39006472 1.0997342
0.1399 -0.43713614 1.1343001
0.14217569 -0.40976694 1.1107229
0.14350156 -0.41026142 1.106632
0.17266269 -0.43597132 1.1343609
0.17986499 -0.40841356 1.1122808
0.17568745 -0.44608566 1.1337961
0.19661266 -0.40356529 1.1075978
0.19906798 -0.39922205 1.1066763
0.20557533 -0.44349417 1.1355746
0.21628077 -0.40509731 1.1111796
0.22132687 -0.37120727 1.0842535
0.23460662 -0.4438982 1.1357538
0.24790162 -0.40047112 1.1060292
0.26938999 -0.42491791 1.1300037
0.2792187 -0.39412636 1.1025406
0.26489705 -0.40875545 1.1076028
0.29256472 -0.4367905 1.1354498
0.29062641 -0.40476322 1.108682
0.30558193 -0.44557139 1.1346397
0.31219515 -0.40970632 1.1136477
0.31277892 -0.40550926 1.1104298
0.33545357 -0.44423565 1.1341529
0.34776989 -0.43896535 1.1357186
0.33156744 -0.41857985 1.1219926
0.32625607 -0.41140437 1.1144695
0.37484449 -0.4463276 1.1349746
0.38499123 -0.44512087 1.1358589
0.35520875 -0.38203606 1.086772
0.38049799 -0.40470383 1.1045841
0.40713322 -0.43111628 1.1274279
0.42607403 -0.43930069 1.1360804
0.43468386 -0.44357732 1.1364543
0.44516686 -0.44380701 1.1361217
0.43780938 -0.41921887 1.1162711
0.4644196 -0.44481316 1.1359669
0.45095223 -0.42016077 1.1221609
0.46673825 -0.42766121 1.12386
0.49506688 -0.44589967 1.134858
0.5021807 -0.44703931 1.1303434
-0.43941164 -0.43620288 1.13978
-0.39279735 -0.43868864 1.1387568
-0.38316235 -0.43604422 1.1387279
-0.37549576 -0.43513879 1.1385808
-0.36233842 -0.43422991 1.1387626
-0.3576985 -0.43524045 1.1383343
-0.34519121 -0.4370352 1.1386337
-0.33604756 -0.4305613 1.1380122
-0.32816988 -0.43616909 1.1383334
-0.31568322 -0.43324766 1.1386945
-0.30468863 -0.43361816 1.1386435
-0.15148322 -0.43581665 1.1379907
-0.10681888 -0.37771919 1.0882726
-0.13356593 -0.43214822 1.137639
-0.12494347 -0.4352363 1.1385856
-0.11427162 -0.43321273 1.1369944
-0.10475519 -0.43560198 1.1345212
-0.064179078 -0.43375257 1.1345755
-0.084929787 -0.43447995 1.1338595
-0.050392464 -0.43551376 1.1346171
-0.022505678 -0.43340215 1.135745
-0.053675316 -0.43438536 1.135977
-0.011441524 -0.43285951 1.1341304
-0.0066813664 -0.43334812 1.1350098
-0.024126833 -0.43445176 1.1354394
0.011578044 -0.43407372 1.1351725
0.018115003 -0.43517074 1.1346796
0.0033811852 -0.43552881 1.136773
0.015636481 -0.43652639 1.1361989
0.025733747 -0.43571007 1.1357397
0.045714211 -0.39847738 1.1057135
0.042856153 -0.38691708 1.098225
0.055289175 -0.43473017 1.1366444
0.087152295 -0.43420416 1.1359402
0.075165898 -0.43436006 1.135654
0.1011381 -0.43401688 1.1341912
0.10980092 -0.43377504 1.1344924
0.10564476 -0.43583187 1.1348724
0.1129009 -0.39771974 1.1141622
0.13621068 -0.43280369 1.1342565
0.13399713 -0.40335807 1.1141171
0.12887281 -0.41398415 1.1185322
0.15510003 -0.43489656 1.1345038
0.16365178 -0.43390828 1.1346898
0.14752822 -0.40336224 1.1082065
0.18151027 -0.43458757 1.1346568
0.18695144 -0.43319401 1.1334362
0.20545843 -0.43623099 1.1354153
0.25899222 -0.41840535 1.1137049
0.24324627 -0.43418768 1.1335557
0.23382849 -0.43716878 1.1360142
0.25878152 -0.4310652 1.1312298
0.26984069 -0.43445578 1.1346564
0.26565045 -0.43636772 1.1356459
0.28859812 -0.43440449 1.1337643
0.29777145 -0.43372452 1.1352049
0.29476264 -0.43521714 1.1361119
0.31211874 -0.43421069 1.1343968
0.32753006 -0.43388328 1.1365901
0.32922551 -0.43414268 1.1340489
0.335985 -0.43660909 1.1362762
0.35076377 -0.41610229 1.1213262
0.3416456 -0.36991832 1.0853164
0.33431476 -0.41195133 1.11729
0.37554914 -0.43530765 1.1358724
0.35929731 -0.41575307 1.1213479
0.36168379 -0.38179836 1.094767
0.39981404 -0.43552256 1.1351502
0.41166645 -0.43467456 1.1353796
0.42490217 -0.43612659 1.1366817
0.42367819 -0.38965434 1.0994349
0.43730983 -0.41144767 1.1196126
0.44283071 -0.40438819 1.111284
0.42216322 -0.38087201 1.0963476
0.42145267 -0.40823036 1.1178479
0.43675709 -0.41276824 1.1189506
0.49467772 -0.43550992 1.1353076
0.50227308 -0.43506449 1.1341208
-0.36256674 -0.42987084 1.1392126
-0.34444249 -0.42581204 1.1381861
-0.33021766 -0.42074323 1.1378982
-0.3260738 -0.42630336 1.1384978
-0.31659967 -0.42777115 1.1392879
-0.30437279 -0.4269979 1.1394602
-0.14352725 -0.42672107 1.1391964
-0.13544618 -0.42629871 1.1382388
-0.12256905 -0.42313886 1.1382251
-0.11474566 -0.42759812 1.1377712
-0.10453472 -0.42527214 1.1379862
-0.093299598 -0.42365518 1.1371362
-0.085242987 -0.42618459 1.1350546
-0.074532427 -0.42549321 1.1366209
-0.065148689 -0.42571524 1.136758
-0.054437477 -0.42518651 1.1365424
-0.044586472 -0.4245525 1.1370789
-0.034349523 -0.42585748 1.1381015
-0.022158351 -0.42457518 1.1376337
-0.016687101 -0.42496961 1.1380508
-0.0033616647 -0.42564639 1.136848
0.0051911576 -0.42340797 1.1374402
0.016196419 -0.42403388 1.1374016
0.024291662 -0.42559084 1.1367009
0.035456907 -0.42610711 1.1376143
0.043912604 -0.42172104 1.1385806
0.055990111 -0.42730838 1.1371995
0.065962404 -0.42487818 1.135301
0.076552495 -0.42363772 1.1377988
0.085395917 -0.42442843 1.1351295
0.094002068 -0.42301089 1.1357701
0.10604283 -0.42537525 1.1343007
0.11528848 -0.42565221 1.13642
0.12478468 -0.42518815 1.1351748
0.13421892 -0.42364556 1.134747
0.16367012 -0.39770371 1.1172402
0.15602314 -0.42494297 1.1354809
0.16529405 -0.42496964 1.1354847
0.15807372 -0.39080232 1.1023296
0.18324454 -0.42337814 1.1368511
0.19530246 -0.42376396 1.1350448
0.2234496 -0.41641098 1.1209155
0.21481973 -0.42465755 1.1350088
0.22397909 -0.42596221 1.1371887
0.23560469 -0.42617327 1.1358782
0.21077004 -0.39896104 1.11457
0.2554661 -0.42392975 1.1356798
0.26557741 -0.42481482 1.1356477
0.27576962 -0.42533147 1.1360945
0.28632349 -0.4241969 1.136165
0.29424819 -0.42464748 1.1346565
0.30651829 -0.42721683 1.137004
0.31537682 -0.42355713 1.1362317
0.29447132 -0.39333892 1.1061201
0.33517134 -0.42428157 1.1377121
0.29311305 -0.36369595 1.0785927
0.32917696 -0.39829385 1.1112869
0.36602166 -0.42564845 1.1348968
0.36484772 -0.41224536 1.1236454
0.36462131 -0.39805546 1.1109773
0.39508471 -0.42364833 1.134168
0.40597501 -0.4259184 1.1359358
0.41473541 -0.42482281 1.134935
0.39636496 -0.39168712 1.1069592
0.42014816 -0.40548897 1.1170996
0.44549915 -0.42416471 1.134895
0.45642069 -0.42520979 1.1364062
0.43723673 -0.38845497 1.1021706
0.47493875 -0.42495283 1.1360271
0.48640946 -0.42539635 1.1352611
0.46150205 -0.40855488 1.1199067
0.49864465 -0.4012714 1.1176178
-0.36101002 -0.41821474 1.1397421
-0.35943475 -0.4138459 1.1386223
-0.3449111 -0.41414499 1.1389174
-0.33295751 -0.41530088 1.1395501
-0.31762007 -0.41526407 1.1390204
-0.13183992 -0.41380483 1.1391687
-0.12347351 -0.41461843 1.1390468
-0.11407325 -0.41518298 1.138584
-0.10314988 -0.41448578 1.1382607
-0.080494836 -0.38351905 1.1059003
-0.084887676 -0.41583529 1.1372384
-0.060617339 -0.38009775 1.1021529
-0.049520411 -0.37700531 1.0983168
-0.053314455 -0.41485244 1.1375067
-0.044829674 -0.4169099 1.1374526
-0.037009653 -0.41835827 1.1371059
-0.022896837 -0.41840374 1.1376359
-0.016610194 -0.41690922 1.137671
-0.0048399656 -0.41535249 1.1378444
0.0039839223 -0.41529989 1.1396227
0.016959703 -0.41663167 1.1387337
0.02788347 -0.41559651 1.1376619
0.035516106 -0.41580808 1.1380709
0.046754129 -0.41627821 1.1386873
0.055386025 -0.414491 1.1373296
0.069863543 -0.35928857 1.0808777
0.074051589 -0.41398501 1.1372178
0.087179832 -0.39208108 1.1124607
0.08271309 -0.3875494 1.1044097
0.10477208 -0.41509405 1.1355685
0.098163478 -0.38438964 1.1012926
0.10761736 -0.41799909 1.134569
0.13439713 -0.38430715 1.1023568
0.15473047 -0.39153278 1.1076449
0.17943327 -0.41678202 1.134419
0.16921531 -0.33772787 1.0682151
0.17745945 -0.39383963 1.1234087
0.17717846 -0.38708359 1.1081692
0.20274286 -0.39464256 1.112008
0.19754493 -0.38657597 1.110239
0.2562944 -0.42042243 1.133621
0.22501212 -0.41583449 1.1375089
0.23627818 -0.41655904 1.1349869
0.20494011 -0.31469023 1.0373582
0.21497782 -0.36448938 1.0870079
0.266399 -0.41475093 1.1343839
0.22734836 -0.30491149 1.0235646
0.29330117 -0.41661018 1.1356096
0.31067383 -0.38109663 1.1119474
0.28215414 -0.36963841 1.0871867
0.31244737 -0.41530362 1.1357454
0.33573115 -0.39741293 1.1140057
0.34038368 -0.41949213 1.1341922
0.34671989 -0.4176248 1.1346178
0.32241306 -0.39879462 1.1146059
0.36566722 -0.4151125 1.1349287
0.35226291 -0.38868055 1.1149465
0.38480526 -0.41433287 1.1354901
0.37155774 -0.37618944 1.1004782
0.38020754 -0.39198187 1.1113137
0.41251388 -0.41221577 1.1259515
0.42454875 -0.39764029 1.129518
0.42240211 -0.3940523 1.1251119
0.4322367 -0.38758034 1.1233816
0.41632691 -0.3760778 1.0957521
0.45141637 -0.41834372 1.1350263
0.47697166 -0.41666284 1.1355928
0.48440841 -0.41689894 1.1344399
0.49455032 -0.41636714 1.1349633
0.50206095 -0.41831589 1.1337831
-0.34811565 -0.40922123 1.1398327
-0.31010419 -0.40573087 1.1399862
-0.12102872 -0.40598056 1.1388454
-0.11762175 -0.40806627 1.1389143
-0.10448821 -0.40642983 1.1383983
-0.095307268 -0.40369794 1.1388544
-0.085971683 -0.40675783 1.139181
-0.075308062 -0.40421692 1.1392573
-0.065048657 -0.40623394 1.1376771
-0.054831333 -0.40612069 1.1377223
-0.045514133 -0.40447807 1.1380301
-0.035460457 -0.40468132 1.1382939
-0.022025576 -0.40719157 1.1389966
-0.017440747 -0.40498966 1.1394219
-0.0030438802 -0.40592763 1.1386557
0.0044298954 -0.40894687 1.1388873
0.058029652 -0.40839529 1.1394739
0.065599278 -0.40588462 1.1380466
0.07413359 -0.40486926 1.1370095
0.085543811 -0.40395653 1.1368865
0.09581022 -0.40410173 1.1363808
0.10731578 -0.40484774 1.1382312
0.11560304 -0.40520608 1.1351401
0.12472529 -0.4049148 1.135927
0.13418125 -0.40444741 1.134936
0.1447418 -0.40570927 1.1354654
0.1543788 -0.40624318 1.1356629
0.15435714 -0.37587276 1.1213531
0.18722413 -0.40795755 1.1352785
0.18570396 -0.40643486 1.1354522
0.19618131 -0.40538177 1.1370907
0.21539016 -0.3547186 1.1138669
0.21355775 -0.40561807 1.1361949
0.22775543 -0.40490788 1.1357731
0.23504472 -0.40532467 1.137337
0.24572377 -0.40405393 1.1384387
0.25296336 -0.40414688 1.1378261
0.26630732 -0.40862989 1.137729
0.27374154 -0.40752319 1.136361
0.30622286 -0.37623692 1.1083862
0.29537177 -0.4073711 1.1362507
0.30704778 -0.40309134 1.1373131
0.31436342 -0.40579852 1.1367617
0.32497653 -0.40550372 1.1351664
0.199571 -0.34759504 1.0652575
0.34478262 -0.40479499 1.1356753
0.3545523 -0.40516853 1.1352386
0.34550747 -0.41119394 1.135106
0.33408204 -0.39378348 1.1178908
0.36212811 -0.39273232 1.1210299
0.39566046 -0.40408954 1.1348138
0.38357455 -0.39079657 1.1169473
0.41373584 -0.37337533 1.1186239
0.35261726 -0.32916528 1.0998273
0.43330869 -0.40851951 1.1321501
0.4418079 -0.40959278 1.1343629
-0.11105332 -0.39920396 1.1378856
-0.08184576 -0.39821982 1.1384907
-0.074362755 -0.39620954 1.139551
-0.066547722 -0.39447021 1.1393405
-0.054615855 -0.39577967 1.1379611
-0.04488926 -0.39723918 1.1384057
-0.023558199 -0.39824581 1.1393588
-0.013886551 -0.39654037 1.1385109
-0.0011303227 -0.39259005 1.1377366
0.054702401 -0.39480942 1.1399379
0.075003229 -0.39590165 1.1388913
0.096050471 -0.3974697 1.1381457
0.10665472 -0.39726862 1.1376671
0.069160506 -0.28963503 1.0557088
0.14285333 -0.39383599 1.1297573
0.13435058 -0.39482757 1.1378286
0.16406684 -0.40132299 1.1358184
0.19773272 -0.41089109 1.1345658
0.13461573 -0.32961476 1.085636
0.17449754 -0.39564091 1.1381366
0.20883743 -0.40940568 1.1353291
0.19521768 -0.39251924 1.1378057
0.20526747 -0.39604864 1.1386356
0.21665007 -0.39389575 1.1383489
0.22485714 -0.39677021 1.1364802
0.23998225 -0.39482903 1.137223
0.24524611 -0.39676547 1.1381658
0.25471961 -0.39664963 1.1363293
0.26132295 -0.39690956 1.1386046
0.30145636 -0.3669596 1.1043557
0.28551733 -0.39470577 1.1368564
0.29544348 -0.39689732 1.1382122
0.30647379 -0.39324543 1.1396441
0.31543532 -0.39639249 1.137868
0.27544868 -0.30744979 1.0691794
0.30356905 -0.34361511 1.0956652
0.32350096 -0.40399042 1.135034
0.32599038 -0.34651861 1.0986376
0.36621869 -0.39470446 1.1354812
0.37420428 -0.39423236 1.1359606
0.38180444 -0.37198371 1.1209195
0.39573523 -0.39411646 1.1349674
0.4037931 -0.39467639 1.1328989
-0.099720627 -0.38729811 1.1398698
-0.081750706 -0.38254535 1.1392477
-0.065444648 -0.3899574 1.1396881
-0.050857574 -0.38626081 1.1398218
-0.036564223 -0.38811269 1.1388841
-0.021649778 -0.38349822 1.1385787
-0.016464125 -0.38381991 1.1384089
-0.0037144907 -0.38564017 1.1395203
0.095361352 -0.38691533 1.1396279
0.10929951 -0.38099158 1.1399817
0.11918491 -0.38614255 1.1381888
0.12619728 -0.38526404 1.1378083
0.13453001 -0.38717693 1.1373214
0.14955115 -0.38283506 1.1395586
0.15266189 -0.38794169 1.1385243
0.16611108 -0.38744754 1.138319
0.17457484 -0.38629976 1.1383263
0.18507871 -0.3868978 1.1379542
0.19056353 -0.38803291 1.1386136
0.20335379 -0.38505602 1.138932
0.22152242 -0.38641232 1.1394143
0.23562041 -0.38362467 1.1388392
0.24286546 -0.38502586 1.1381388
0.2556822 -0.38421685 1.1388205
0.2752392 -0.3876718 1.13775
0.28539646 -0.38492984 1.1388032
0.29176304 -0.38720399 1.1389581
0.32975703 -0.38428211 1.1393852
0.33370537 -0.38458276 1.1358418
0.34344134 -0.3851676 1.136309
0.31825039 -0.36429 1.1009457
0.33735481 -0.39254242 1.1347361
0.30704233 -0.30527157 1.0835454
0.38554427 -0.38454345 1.1361375
0.37437177 -0.3898342 1.1330942
0.3935349 -0.33588648 1.0907651
0.41317356 -0.38706297 1.1314589
-0.10070486 -0.37177998 1.1394156
-0.096462078 -0.37333792 1.1392802
-0.066400811 -0.37598544 1.139852
0.12681094 -0.37573776 1.1397445
0.14668915 -0.37158346 1.1398741
0.1521893 -0.37970391 1.1393678
0.17974848 -0.37406117 1.1398792
0.18399283 -0.37885758 1.1398067
0.20308825 -0.37429309 1.1393887
0.23176309 -0.37585086 1.139756
0.25919259 -0.37490255 1.1396254
0.26153311 -0.37661552 1.1396732
0.28160748 -0.37183908 1.1394384
0.32900363 -0.3769471 1.1379114
0.33530876 -0.37750441 1.1362766
0.34479728 -0.3739332 1.1363809
0.30297032 -0.31347576 1.0863504
0.33392256 -0.33716613 1.106654
0.37634531 -0.3746857 1.1350408
0.38415894 -0.37460649 1.1365727
0.37684464 -0.35722968 1.1240976
0.40498322 -0.3739801 1.1339151
0.41266119 -0.37104094 1.1316392
0.091364503 -0.36916819 1.1399565
0.10985625 -0.36440545 1.1399347
0.12894559 -0.36819705 1.1398315
0.15441954 -0.36285564 1.1399322
0.20614433 -0.36870492 1.1399498
0.2326808 -0.36337534 1.1397033
0.2874732 -0.36835468 1.1395735
0.30153701 -0.3672713 1.1387479
0.3360782 -0.36380646 1.1398611
0.34905145 -0.36581266 1.1378549
0.35545987 -0.36429361 1.1366498
0.3741028 -0.32759419 1.1348403
0.37589601 -0.36617041 1.1351323
0.38760516 -0.3294417 1.1317184
0.36460519 -0.32382074 1.114995
0.39112243 -0.33240443 1.1020024
0.41074294 -0.36269745 1.1357141
0.12853107 -0.35961679 1.1398602
0.33276135 -0.3556681 1.1398211
0.34639251 -0.35693648 1.1393927
0.35617211 -0.35394984 1.1360772
0.35304099 -0.30692539 1.093076
0.32699847 -0.30379188 1.1030278
0.38848251 -0.31430057 1.101584
0.36700562 -0.33644131 1.1157745
0.40579146 -0.35480711 1.1362501
0.41393825 -0.35607678 1.1336857
0.33756414 -0.34112495 1.1390059
0.34310675 -0.34291828 1.1377337
0.35343301 -0.34571844 1.1380528
0.36693221 -0.34662819 1.1361808
0.37290049 -0.34640145 1.137754
0.38390151 -0.34481689 1.1351799
0.34622398 -0.30627272 1.1061957
0.4050903 -0.3450681 1.1346246
0.38931051 -0.27950817 1.0799402
0.42069381 -0.3464236 1.1316624
0.34444115 -0.33994287 1.1377382
0.3508203 -0.33213496 1.1374447
0.36743265 -0.33572769 1.1362022
0.32254252 -0.27557349 1.070995
0.38624135 -0.33443409 1.135762
0.36006704 -0.319879 1.1144443
0.40388224 -0.32333881 1.1236624
0.41412467 -0.3349109 1.1353264
0.42228857 -0.33575612 1.1312464
0.36437404 -0.3227585 1.1394877
0.37589464 -0.32559609 1.1371634
0.3842102 -0.32554051 1.1361851
0.40621114 -0.29257181 1.0980327
0.4051832 -0.3108632 1.1325126
0.40067646 -0.28925562 1.1103137
0.42346826 -0.32451904 1.1323435
0.36742628 -0.31696194 1.1380796
0.37628931 -0.31845343 1.137542
0.38569519 -0.31438136 1.1359608
0.37071332 -0.29159471 1.1018282
0.40556401 -0.31434253 1.1362814
0.41486016 -0.31488618 1.1349502
0.42362922 -0.31601256 1.133142
0.37727007 -0.30830848 1.136308
0.38529491 -0.30529296 1.1376823
0.3947137 -0.30596179 1.1358666
0.35230422 -0.2648727 1.1008886
0.41615376 -0.30596113 1.1349318
0.38310272 -0.25124916 1.0917134
0.37835807 -0.29821277 1.1395667
0.39605686 -0.29476902 1.1364659
0.40835735 -0.28566375 1.1154681
0.41524386 -0.29452258 1.1353254
0.42167366 -0.26712269 1.1301587
0.38457963 -0.28487924 1.1392658
0.39546147 -0.28374583 1.1369047
0.40656728 -0.28521678 1.1353406
0.38725978 -0.26574054 1.1206273
0.39017603 -0.2488081 1.0997059
0.39722511 -0.27575305 1.1370088
0.37057129 -0.22882286 1.0705032
0.41619584 -0.27546859 1.1344285
0.42413902 -0.27021194 1.1345124
0.39482665 -0.26978558 1.1354909
0.40401387 -0.26462108 1.1346444
0.41558999 -0.26546261 1.1353313
0.42443931 -0.25529188 1.1273242
0.39736611 -0.258964 1.1377097
0.40874434 -0.25291196 1.1126689
0.39033276 -0.23229016 1.1143814
0.42472959 -0.25721833 1.1317067
0.43121228 -0.2542457 1.13232
0.40671527 -0.24533728 1.1353202
0.41587269 -0.24386348 1.1353664
0.42330295 -0.2343771 1.1340674
0.43238109 -0.24769385 1.1314373
0.42114648 -0.25202954 1.0896801
0.4094727 -0.22039555 1.1215264
0.42413494 -0.23443858 1.1355829
0.43052182 -0.23584332 1.1307484
0.40425012 -0.22639382 1.1333902
0.41145256 -0.20482245 1.1174107
0.42294154 -0.22506531 1.1356773
0.43198252 -0.22414792 1.1361394
0.4060269 -0.21673384 1.1346903
0.41466165 -0.21630017 1.1350807
0.42630032 -0.214643 1.1351017
0.43330789 -0.21394467 1.1360625
0.38732281 -0.14841717 1.088529
0.41573656 -0.20695148 1.1363827
0.42586571 -0.20487615 1.1364447
0.35755932 -0.17435795 1.0742663
0.41701809 -0.19599217 1.1356105
0.42484719 -0.19536565 1.1356328
0.43227869 -0.19315903 1.1342046
0.41338435 -0.1864765 1.1325537
0.42578802 -0.18503417 1.1367078
0.36866495 -0.13506258 1.0657237
-0.093557805 0.092687964 0.89444399
0.4174796 -0.17586355 1.1344523
0.42479602 -0.17479798 1.1353728
0.43302688 -0.17455989 1.1346369
0.41441172 -0.16644035 1.1369532
0.408887 -0.15894234 1.1267871
0.43557203 -0.17639868 1.1151978
-0.017955363 0.088706344 0.89948463
0.4164508 -0.15598863 1.1354113
0.42614409 -0.15969437 1.1321689
0.43178824 -0.15559302 1.1349156
0.41612858 -0.14497642 1.1358554
0.42505988 -0.14367442 1.1348941
0.4310753 -0.14400899 1.1349061
0.40537354 0.064875692 0.89542848
0.41526499 -0.12346584 1.1127869
0.43435481 -0.15533577 1.1308436
0.43023852 -0.13415146 1.135035
0.41530097 -0.12557584 1.1345479
0.42328161 -0.12460063 1.1355283
0.43108511 -0.12256601 1.1302608
0.41557297 -0.1152547 1.1352323
0.4230862 -0.10566875 1.130013
0.43055299 -0.11618713 1.1309307
0.40932178 -0.10162693 1.1300621
0.41593888 -0.1053001 1.1348618
0.42400163 -0.10508516 1.1347762
0.43017069 -0.10676078 1.1315913
0.39469719 -0.099600129 1.1239293
0.42421445 -0.094389707 1.1352359
0.40834749 -0.081679523 1.1304543
0.41511676 -0.084326096 1.1348267
0.42349589 -0.084725246 1.1356878
0.40875632 -0.073333591 1.1355355
0.41641638 -0.075049333 1.1352215
0.42328653 -0.075610153 1.1348871
0.40692028 -0.063011616 1.1329529
0.41457948 -0.065349661 1.1341599
0.42213413 -0.065234475 1.1347723
0.40694034 -0.053608991 1.13533
0.41629273 -0.054717183 1.1335354
0.42530245 -0.073114529 1.1291986
0.40552947 -0.046309788 1.1341674
0.41625506 -0.044336658 1.1353363
0.42359227 -0.0855463 1.1245654
0.40917021 -0.06057835 1.1354216
0.4097676 -0.029150421 1.122084
0.42059642 -0.035733521 1.1324066
0.38278255 0.026304891 0.98968494
0.3880184 -0.049575608 1.1347207
0.41475746 -0.025931178 1.1361597
0.39795244 -0.016134022 1.1355424
0.3974517 -0.052569542 1.1187934
0.4134385 -0.013942584 1.1350529
0.39580521 -0.0057256222 1.1314391
0.35411295 -0.064235069 1.1333246
0.41089651 -0.0047022551 1.1331768
0.39927509 0.0020852881 1.1349692
0.40611517 0.0030813497 1.1353028
0.4128769 0.0026855893 1.1330506
-0.59478253 -0.48149496 1.1447525
-0.58529842 -0.4806574 1.1487975
-0.57701969 -0.48308456 1.1498065
-0.51514798 -0.48257607 1.1486106
-0.48925841 -0.48150653 1.1476262
-0.47827551 -0.48097962 1.1460913
-0.46380109 -0.4816148 1.1435823
-0.45202202 -0.48242733 1.1437922
-0.41908628 -0.48101082 1.1499915
-0.30157956 -0.48018885 1.1485896
-0.25697613 -0.48125836 1.1457565
-0.62325144 -0.47021788 1.1485205
-0.61668813 -0.47208029 1.1466343
-0.60493076 -0.473636 1.1453831
-0.40742779 -0.35959637 1.0905731
-0.4855628 -0.38453841 1.088344
-0.55840707 -0.47957283 1.1492623
-0.52116543 -0.47431642 1.149484
-0.51423359 -0.4781875 1.1481695
-0.50555742 -0.4756192 1.1486535
-0.49424028 -0.47525737 1.1491978
-0.37751314 -0.35542628 1.0679719
-0.43965536 -0.43505841 1.1204674
-0.44982907 -0.47307667 1.1454632
-0.39955133 -0.45531538 1.1315413
-0.44499034 -0.47344732 1.1446539
-0.42225417 -0.47250038 1.1424214
-0.41437659 -0.47234559 1.1431488
-0.38829842 -0.41073504 1.1113291
-0.40614098 -0.47202423 1.1450708
-0.39530629 -0.47256503 1.1467307
-0.38528723 -0.47236776 1.145391
-0.35066941 -0.41721326 1.1130236
-0.36474743 -0.47205132 1.1454237
-0.35508183 -0.47110516 1.1452624
-0.34647113 -0.473216 1.1456903
-0.33501291 -0.47037661 1.1439519
-0.32560033 -0.47429514 1.1443622
-0.31633756 -0.47185564 1.1470599
-0.30537257 -0.47153369 1.1455935
-0.29478505 -0.47405234 1.1459956
-0.28470477 -0.472931 1.1448603
-0.16424207 -0.38374192 1.1007392
-0.16659094 -0.37934083 1.1039132
-0.25403938 -0.47223479 1.1455797
-0.2222756 -0.41065073 1.1159167
-0.23578988 -0.47187805 1.1456469
-0.22660291 -0.47116214 1.1455463
-0.20853817 -0.41552868 1.119504
-0.20507848 -0.47269326 1.1440029
-0.19393215 -0.47267294 1.147687
-0.18365526 -0.47354689 1.1442608
-0.17406188 -0.47135326 1.1441878
-0.16403857 -0.47252697 1.146666
-0.15982154 -0.47837102 1.1491737
-0.14627673 -0.47209245 1.1449157
-0.13477175 -0.47190842 1.1438426
-0.12492892 -0.47412214 1.1458809
-0.11245111 -0.47101873 1.146616
-0.10096392 -0.47160333 1.1469712
-0.099046901 -0.47393274 1.1452234
-0.073004544 -0.47497314 1.1449916
-0.065679789 -0.47294641 1.1463192
-0.05135259 -0.47095197 1.1439072
-0.038077809 -0.47164732 1.1422262
-0.027142577 -0.47186673 1.1445565
-0.012015514 -0.47284061 1.1430076
-0.0017861445 -0.47289643 1.1462879
0.0069584996 -0.47344232 1.1454782
0.023872817 -0.47468501 1.1458092
0.033160448 -0.47489232 1.1467043
0.045680385 -0.47240877 1.1442719
0.053905617 -0.47303337 1.1461008
0.066670351 -0.47323257 1.1466248
0.075820073 -0.47248352 1.1437
0.081983134 -0.47128552 1.1453158
0.093953326 -0.47187075 1.1445594
0.10675497 -0.47230005 1.1455479
0.13041607 -0.47104502 1.1439734
0.1444667 -0.47193754 1.1451041
0.15461649 -0.47123945 1.1441113
0.16487393 -0.47161508 1.1439877
0.17318723 -0.47041261 1.1449828
0.1845482 -0.47243878 1.1405877
0.19179626 -0.47036204 1.1427903
0.25519687 -0.39107549 1.0990624
0.2196501 -0.4703044 1.1426077
0.22670466 -0.47129327 1.1441739
0.2361826 -0.47163701 1.1436579
0.24210864 -0.47156626 1.1460974
0.25126991 -0.47015223 1.143337
0.26355755 -0.47161594 1.1443785
0.27411956 -0.47072697 1.1448655
0.2935625 -0.47188592 1.1428415
0.30128312 -0.47373503 1.1433868
0.31627333 -0.47352228 1.1454667
0.32802907 -0.47060987 1.1404183
0.4178136 -0.47150666 1.1427946
0.42150354 -0.47041291 1.1435246
-0.47924083 -0.32497647 1.0768676
-0.5495742 -0.42297432 1.1249685
-0.56839418 -0.44335991 1.1290336
-0.59648973 -0.46760049 1.1469578
-0.5101974 -0.46602762 1.1494014
-0.49320877 -0.46739802 1.1496993
-0.48477221 -0.46731937 1.1488991
-0.47453597 -0.46611235 1.1475205
-0.4649218 -0.46588662 1.1471291
-0.45643905 -0.46548256 1.1472876
-0.39215541 -0.44442615 1.130507
-0.43394288 -0.46447337 1.1462948
-0.42504343 -0.464959 1.1464491
-0.41527855 -0.46609604 1.1446003
-0.40475962 -0.46562278 1.1442922
-0.38325033 -0.43891382 1.1284522
-0.36586276 -0.42825669 1.1185678
-0.37429491 -0.46458259 1.1439983
-0.35058397 -0.44003034 1.1302129
-0.35535631 -0.46519482 1.1446248
-0.28989202 -0.39933938 1.1025757
-0.28132841 -0.39751005 1.0998918
-0.29539087 -0.43009293 1.1245203
-0.29853067 -0.41728881 1.113162
-0.26388127 -0.41424426 1.1287649
-0.20711239 -0.33674437 1.0846304
-0.28442296 -0.46498412 1.1439271
-0.25373149 -0.44511053 1.1291012
-0.26525852 -0.46561369 1.144821
-0.23570567 -0.44610101 1.1307803
-0.24488524 -0.46512857 1.1443942
-0.21761845 -0.44611916 1.1293653
-0.20074348 -0.43847376 1.1320493
-0.19915332 -0.44252822 1.1272146
-0.20477955 -0.46579981 1.1453445
-0.15832373 -0.43055412 1.1253884
-0.1849805 -0.46454597 1.1449444
-0.17680348 -0.4377242 1.1296436
-0.16892038 -0.42124927 1.1206099
-0.15701649 -0.40235206 1.1043266
-0.14617522 -0.46250015 1.1449391
-0.1366854 -0.40784383 1.1048787
-0.08734782 -0.41299227 1.1064149
-0.11673217 -0.41489866 1.1089256
-0.10526346 -0.46452147 1.143044
-0.093625039 -0.46499109 1.1428926
-0.084200777 -0.46429515 1.1426728
-0.076230861 -0.46553883 1.1414
-0.065022282 -0.46391273 1.1432422
-0.054099977 -0.46354076 1.1425605
-0.045712821 -0.46615982 1.1434
-0.035980172 -0.46502265 1.1441177
-0.028948326 -0.42335525 1.1212238
-0.020938843 -0.41791284 1.1180878
-0.0053631337 -0.46508443 1.1431904
-0.0095516192 -0.39426038 1.1007534
0.0098692905 -0.41814822 1.1185839
0.005573696 -0.39512369 1.1005797
0.035746764 -0.4653821 1.1455699
0.067353271 -0.4081707 1.108512
0.054558732 -0.46422625 1.1428888
0.096443243 -0.38565928 1.0955709
0.096365273 -0.40738845 1.1018265
0.084641911 -0.46389225 1.1432728
0.094826542 -0.46511918 1.1434029
0.10509832 -0.46503696 1.1427348
0.1149661 -0.46635592 1.1429818
0.12414747 -0.46336427 1.1432688
0.1352607 -0.46478534 1.144014
0.14572985 -0.46428028 1.1437988
0.15508895 -0.46473899 1.1431081
0.16303787 -0.46238294 1.1448419
0.19418499 -0.43351609 1.1288608
0.21765733 -0.42101631 1.1201332
0.19551365 -0.46389124 1.1423935
0.20673127 -0.4638156 1.1424323
0.21521461 -0.46505746 1.1422369
0.22366109 -0.46551037 1.1430019
0.23541112 -0.46428517 1.1424379
0.24458937 -0.463934 1.1432168
0.25478801 -0.46375757 1.1420352
0.26486728 -0.46330109 1.1431175
0.27555087 -0.46540764 1.1423775
0.28512922 -0.46440172 1.143056
0.29479906 -0.46388665 1.1417587
0.30623055 -0.46463013 1.1446391
0.31589046 -0.46462393 1.1433262
0.31231245 -0.40769464 1.1029181
0.33352035 -0.46506914 1.1408526
0.34573242 -0.46329579 1.1417429
0.3882322 -0.46462601 1.1410663
0.39692733 -0.46474096 1.1429579
0.40460151 -0.46546316 1.142531
0.41362146 -0.46440327 1.1434407
0.42498454 -0.4645946 1.1442746
0.43358302 -0.46502629 1.1415652
0.44197309 -0.46308976 1.1404381
-0.61417931 -0.45441544 1.149139
-0.60410213 -0.45475423 1.1490638
-0.59564412 -0.45672899 1.1488296
-0.58957154 -0.45726335 1.1490085
-0.4937641 -0.45397794 1.1495414
-0.48542503 -0.45914403 1.1492987
-0.47419992 -0.45471475 1.1484271
-0.46588188 -0.45491332 1.1458685
-0.40944451 -0.41163427 1.1136196
-0.44558814 -0.4559412 1.1469971
-0.40715513 -0.42575014 1.1259753
-0.43242264 -0.45671272 1.1465644
-0.37681663 -0.4269352 1.1238717
-0.38264629 -0.43245095 1.1290383
-0.38713011 -0.45577684 1.144267
-0.35634753 -0.43783623 1.1313643
-0.33396104 -0.42552993 1.1232514
-0.3558355 -0.44071826 1.1337553
-0.30595431 -0.43033701 1.127035
-0.33679423 -0.43232942 1.1303592
-0.30093107 -0.41453212 1.1206439
-0.28960794 -0.40001029 1.105513
-0.31543532 -0.4541395 1.1449295
-0.2960771 -0.43324399 1.1297215
-0.27091303 -0.42177466 1.120872
-0.24048591 -0.42417637 1.1436635
-0.2407272 -0.4263635 1.1254851
-0.20915458 -0.41539967 1.1440433
-0.18265669 -0.39974207 1.1226317
-0.20203127 -0.41709009 1.1192715
-0.20620342 -0.43116412 1.1412009
-0.16757658 -0.38366133 1.1140817
-0.21591459 -0.45417482 1.1461821
-0.16241331 -0.40393203 1.1213347
-0.12793912 -0.39602837 1.1103004
-0.1738403 -0.43367615 1.1257683
-0.12018203 -0.39305559 1.1178021
-0.14086972 -0.42074391 1.1324669
-0.15266797 -0.42204696 1.1250243
-0.14135987 -0.4169437 1.1247526
-0.13441318 -0.45465827 1.144484
-0.089137241 -0.42375943 1.1245511
-0.085145935 -0.42790505 1.1275847
-0.10397213 -0.4537859 1.1437372
-0.103034 -0.36940229 1.081578
-0.049274016 -0.38385239 1.0891814
-0.076418638 -0.45456657 1.143543
-0.047184881 -0.40753856 1.1101491
-0.055060118 -0.45352301 1.1432256
-0.045131262 -0.45543656 1.1427548
-0.040110085 -0.42819524 1.124828
-0.039619055 -0.37727258 1.0879242
-0.031307571 -0.39325443 1.1028682
-0.0046330839 -0.45401445 1.1440326
0.0045178579 -0.43230245 1.127807
0.038952943 -0.42510757 1.1256719
0.041318566 -0.43098915 1.1297405
0.034995291 -0.45480919 1.1446004
0.065625533 -0.42955619 1.1284509
0.035805404 -0.42062339 1.1220558
0.049195662 -0.4272972 1.1270574
0.060311966 -0.424992 1.1238446
0.084069774 -0.45538235 1.1450628
0.099207006 -0.37055039 1.1032705
0.10484248 -0.45457399 1.1439179
0.11464409 -0.45619807 1.1422342
0.1238101 -0.45302132 1.1438864
0.13639329 -0.45409358 1.1422675
0.15270852 -0.41715723 1.1158158
0.15613863 -0.45542336 1.1430486
0.17277838 -0.40581182 1.1078281
0.17346874 -0.45440835 1.1423616
0.19076617 -0.39271936 1.0983661
0.19392574 -0.45441404 1.1423926
0.20473112 -0.45532715 1.1434784
0.21478015 -0.45385948 1.1434917
0.19804519 -0.42096597 1.1226856
0.20853695 -0.37489283 1.0905601
0.22454897 -0.42947888 1.1281335
0.25358889 -0.41157097 1.1129299
0.26545781 -0.45371217 1.1437693
0.24657892 -0.3860077 1.0959268
0.28517827 -0.45531934 1.1437645
0.2870954 -0.40944415 1.1096647
0.28696921 -0.40682003 1.1112533
0.31954938 -0.42631546 1.1265271
0.32456768 -0.45484945 1.1435837
0.33451375 -0.45569181 1.141907
0.34252313 -0.45414132 1.1414623
0.35265636 -0.45252275 1.1421697
0.38835192 -0.45548233 1.1436442
0.33654615 -0.40219697 1.1119622
0.38154379 -0.42406905 1.1220618
0.41683066 -0.44601372 1.1334386
0.42408898 -0.45511782 1.1427571
0.4123562 -0.40575188 1.1065226
0.44730803 -0.45449305 1.1414362
0.4587937 -0.45444965 1.1427838
0.46457952 -0.45133477 1.1434608
0.47349954 -0.45125371 1.1412722
-0.60375965 -0.4493722 1.1483724
-0.59420907 -0.44263467 1.148559
-0.5028019 -0.44950473 1.1495118
-0.49410105 -0.44362864 1.1494975
-0.48443511 -0.44601202 1.1485336
-0.42089239 -0.39197621 1.0956055
-0.4653244 -0.44465628 1.1470044
-0.38456923 -0.41381803 1.1300383
-0.3893027 -0.42915401 1.1461177
-0.43418518 -0.44580579 1.1454989
-0.38619593 -0.43315977 1.1448497
-0.33883673 -0.42209154 1.1451004
-0.4052349 -0.44561601 1.1456225
-0.34727049 -0.43062234 1.1408716
-0.34165713 -0.41881838 1.1293081
-0.3757416 -0.44486392 1.1444864
-0.28095409 -0.41315061 1.1278226
-0.31126872 -0.43315902 1.1438663
-0.29871476 -0.41786358 1.1287358
-0.2994307 -0.43412063 1.1440511
-0.27665719 -0.42641801 1.1382064
-0.28061682 -0.43479353 1.1442457
-0.26789033 -0.41350752 1.1274447
-0.24120969 -0.42550331 1.142382
-0.25246423 -0.43441129 1.1433417
-0.27526608 -0.44517744 1.1469115
-0.21207386 -0.42990825 1.144098
-0.25453696 -0.44495741 1.1465024
-0.24575427 -0.44511071 1.1461945
-0.23600461 -0.44512281 1.1455034
-0.19107774 -0.43344262 1.1441225
-0.21656139 -0.44579253 1.1460917
-0.17027822 -0.43013078 1.1399804
-0.1548537 -0.43334016 1.144069
-0.15312979 -0.4336696 1.1427811
-0.17470565 -0.44494021 1.1446925
-0.13621907 -0.43400297 1.1436971
-0.11880461 -0.40710816 1.1231334
-0.14795804 -0.41829368 1.1222379
-0.084622674 -0.3500064 1.0890722
-0.095648818 -0.41103762 1.1249964
-0.12475944 -0.37917233 1.0953929
-0.10540166 -0.44435227 1.1447421
-0.069137663 -0.38591635 1.0959022
-0.084523179 -0.4447546 1.1443318
-0.049711306 -0.42598954 1.1285715
-0.027153783 -0.41787919 1.1226338
-0.055648919 -0.4446803 1.1444324
-0.023020897 -0.40640762 1.1153018
-0.035859261 -0.44481844 1.143496
-0.033634786 -0.42459708 1.1281765
0.0026482961 -0.40083635 1.1129031
-0.0064574797 -0.44634685 1.1443751
-0.0039025734 -0.42369518 1.1285863
0.005586368 -0.41411182 1.1199232
0.026066177 -0.3691583 1.0869772
0.035920337 -0.44488341 1.1450133
0.045695212 -0.38585347 1.0999458
0.066944979 -0.42119405 1.1194029
0.089847215 -0.39425823 1.106849
0.10061814 -0.40457442 1.1301224
0.099033877 -0.43027902 1.1332746
0.095902838 -0.44638589 1.1432976
0.10533382 -0.4441998 1.1432686
0.11573687 -0.44405857 1.1435463
0.12458684 -0.4450863 1.1435139
0.15502386 -0.41369703 1.1303892
0.14483896 -0.44339025 1.1414938
0.15524955 -0.44440302 1.1424537
0.16423917 -0.44508764 1.1435331
0.17453538 -0.44562948 1.1421881
0.18437916 -0.44471136 1.14248
0.19401252 -0.44561759 1.1432124
0.20537248 -0.4450359 1.1438239
0.21455897 -0.44514963 1.1435698
0.23564287 -0.42355433 1.127272
0.24612865 -0.41998959 1.1265575
0.21715401 -0.4161756 1.1234727
0.24633908 -0.41233921 1.1200626
0.263901 -0.4439477 1.1438847
0.25826102 -0.42813957 1.1317458
0.28490663 -0.44564348 1.1449288
0.28493327 -0.41779718 1.1233842
0.27944976 -0.42172202 1.1264521
0.31486535 -0.44486105 1.1445824
0.32432702 -0.44493887 1.1439097
0.33637202 -0.44611359 1.1430349
0.34332004 -0.44633353 1.1429962
0.35506207 -0.44399565 1.1424124
0.36564183 -0.44498175 1.1424509
0.37448752 -0.44412112 1.1424007
0.38749331 -0.4443582 1.1432891
0.3664785 -0.42212218 1.1273042
0.37480378 -0.42028692 1.1273977
0.38893542 -0.40641668 1.1165777
0.42903322 -0.43980217 1.132629
0.43583378 -0.44407442 1.1428263
0.44637385 -0.44374406 1.1427808
0.45376718 -0.44476223 1.1424019
0.46387964 -0.44487587 1.1426947
0.47612703 -0.4440853 1.1430701
0.48751557 -0.44275734 1.140614
-0.47379237 -0.43642923 1.1490419
-0.43095881 -0.40654895 1.1166992
-0.41557491 -0.40065247 1.116653
-0.44578627 -0.43528518 1.1468216
-0.39747751 -0.40106639 1.1148493
-0.42469582 -0.4344379 1.1459273
-0.38637042 -0.40959787 1.1230071
-0.38451171 -0.41684279 1.1293374
-0.39522815 -0.43449578 1.1458372
-0.36773777 -0.41785985 1.1292123
-0.35200393 -0.41521487 1.1267749
-0.36528161 -0.43606216 1.1444043
-0.32431376 -0.40827107 1.1196473
-0.34532353 -0.43410689 1.1449062
-0.3159101 -0.41799861 1.1295084
-0.29768243 -0.41052142 1.122691
-0.31580967 -0.43505213 1.1438824
-0.28542909 -0.40667504 1.119851
-0.29567999 -0.43556666 1.1446166
-0.28487882 -0.43378982 1.1469815
-0.27447444 -0.43489465 1.1480185
-0.26554322 -0.43481237 1.1469964
-0.25466225 -0.43493819 1.1471465
-0.24453755 -0.43531114 1.1471424
-0.23564786 -0.43502104 1.1472615
-0.22408485 -0.43540165 1.1452563
-0.21646182 -0.43627742 1.1464578
-0.20419528 -0.43485051 1.1469911
-0.17647161 -0.41040534 1.1232746
-0.18571627 -0.43677562 1.1454794
-0.11030481 -0.38735387 1.0998493
-0.14523055 -0.40759614 1.1219068
-0.14433895 -0.42381278 1.130402
-0.14444283 -0.43540868 1.144774
-0.13376658 -0.4349843 1.1463885
-0.11776092 -0.4108595 1.1226401
-0.11472278 -0.43552732 1.1447854
-0.1077109 -0.41625229 1.1297245
-0.095398434 -0.43368736 1.1433045
-0.032379277 -0.37789255 1.1006895
-0.076066636 -0.43421617 1.1448497
-0.042840473 -0.39759749 1.1181628
-0.065585531 -0.4134286 1.126413
-0.045003291 -0.43420693 1.1452864
-0.043371208 -0.41698036 1.1301587
-0.008700355 -0.39895546 1.1177202
-0.024651118 -0.41331834 1.1259459
-0.0051300209 -0.43564796 1.1454605
0.045611914 -0.3862533 1.1053385
0.015637899 -0.43498373 1.1458374
0.066589192 -0.42594427 1.13551
0.071619533 -0.42922601 1.1371235
0.045871008 -0.43512052 1.143194
0.056831177 -0.43552986 1.1448898
0.064319663 -0.43516451 1.1463925
0.074431337 -0.43503195 1.1430178
0.085264586 -0.43403253 1.144821
0.11544444 -0.41244772 1.126713
0.088841222 -0.41495332 1.1274757
0.11441159 -0.39592734 1.1214604
0.1256586 -0.43433908 1.1451204
0.15004741 -0.41292933 1.1346066
0.14609122 -0.43426302 1.14315
0.13318396 -0.4075208 1.124146
0.16309705 -0.40036806 1.1184863
0.17484154 -0.43514118 1.1434497
0.16280544 -0.37177172 1.0951015
0.19031444 -0.40300018 1.1190164
0.20172279 -0.40225372 1.1202129
0.21874775 -0.3776117 1.1000401
0.22498846 -0.43592033 1.1450453
0.22404648 -0.3844842 1.1082166
0.24455421 -0.43527851 1.1447695
0.25599554 -0.4346137 1.1454413
0.2411488 -0.4145292 1.1286837
0.26705155 -0.40882102 1.1262099
0.26108769 -0.41254508 1.1264739
0.29468372 -0.43464983 1.1459676
0.29139987 -0.40072599 1.1190546
0.29444227 -0.40008485 1.1220732
0.31988275 -0.33554533 1.0740483
0.33393532 -0.43505621 1.1442935
0.31762093 -0.37971079 1.102176
0.35467824 -0.43327215 1.1430669
0.36482552 -0.4354569 1.1433363
0.33690354 -0.37047198 1.0935092
0.38527426 -0.43505228 1.1427456
0.39549506 -0.43465742 1.1450338
0.40479207 -0.4345949 1.1452203
0.41453123 -0.43614718 1.145661
0.3996807 -0.41585287 1.1298124
0.41093168 -0.37898251 1.1108903
0.42081624 -0.38898641 1.1151445
0.43858156 -0.38773432 1.1251583
0.45942643 -0.41495615 1.1349244
0.46626303 -0.39194369 1.1237968
0.46995795 -0.40504113 1.1266894
0.49264866 -0.43444884 1.1436391
-0.47711754 -0.42802861 1.1498599
-0.4660219 -0.42498732 1.1489712
-0.45265087 -0.42547342 1.1487938
-0.44305256 -0.42422268 1.1466302
-0.43612385 -0.42532861 1.1451095
-0.38140655 -0.42376018 1.1460123
-0.41401193 -0.42569155 1.1470524
-0.36175051 -0.42294338 1.1457208
-0.39428812 -0.4240064 1.1455437
-0.34660262 -0.42335501 1.1460235
-0.32849181 -0.42252707 1.1436037
-0.36405212 -0.42499721 1.1433395
-0.32160923 -0.42475078 1.1438659
-0.31390059 -0.42454621 1.1427552
-0.33385351 -0.42521682 1.1436777
-0.2794686 -0.42242098 1.1434275
-0.2745252 -0.41690102 1.1395283
-0.27536097 -0.40202829 1.1311826
-0.25632265 -0.42249665 1.1458157
-0.28376627 -0.42272037 1.1458819
-0.27746481 -0.42876223 1.147481
-0.26565456 -0.42633718 1.1484289
-0.22011276 -0.37520114 1.1033581
-0.24470249 -0.42657125 1.1481986
-0.23186216 -0.42595831 1.1470947
-0.22315811 -0.42706507 1.148123
-0.2151486 -0.42487159 1.148643
-0.16659118 -0.37608615 1.1032848
-0.19355637 -0.42542323 1.1460176
-0.1549924 -0.42223695 1.142872
-0.17389619 -0.42548034 1.1453998
-0.12989166 -0.41978702 1.1410868
-0.12537463 -0.4241446 1.1442431
-0.11980171 -0.39727944 1.1191994
-0.077634469 -0.38964915 1.1255002
-0.10954321 -0.42365664 1.143525
-0.077522658 -0.40538234 1.1248398
-0.077120736 -0.40582493 1.1270063
-0.094270252 -0.42534256 1.1448559
-0.090253845 -0.3536357 1.0830545
-0.081915274 -0.40882349 1.1289158
-0.074034698 -0.37584591 1.1034704
-0.064376883 -0.39849281 1.1199989
-0.051365338 -0.38375473 1.1118573
-0.041020893 -0.40764028 1.1269778
-0.031774975 -0.40605241 1.1269088
-0.027929086 -0.36474919 1.0948913
-0.0060888897 -0.42583445 1.1461143
0.014011127 -0.37762707 1.1043715
0.016859362 -0.40553129 1.1251409
0.015471934 -0.37726587 1.1053963
0.034462288 -0.42529091 1.1455811
0.035590425 -0.39104027 1.1193203
0.069277279 -0.41324484 1.1335373
0.066858135 -0.40845808 1.1278883
0.074231654 -0.42549235 1.1447645
0.099389523 -0.3926917 1.1232007
0.095774099 -0.40741912 1.1281567
0.10638915 -0.4075948 1.1264876
0.11570313 -0.42607421 1.1454325
0.12640393 -0.40391228 1.1240283
0.13602744 -0.40528542 1.1251173
0.14529842 -0.40633678 1.1278201
0.17037548 -0.40732625 1.1271205
0.1658002 -0.42386127 1.1448463
0.1968468 -0.39998609 1.1207867
0.15883784 -0.40475124 1.1247418
0.17742284 -0.41144124 1.1310247
0.20565329 -0.42523772 1.1452161
0.194334 -0.40799877 1.1285268
0.20249337 -0.40767342 1.1270798
0.21009435 -0.39110634 1.1159109
0.24541201 -0.42621785 1.1443881
0.23640844 -0.41153502 1.1319215
0.24149068 -0.40833637 1.1273209
0.25137931 -0.40249282 1.1258581
0.28576154 -0.42395863 1.145815
0.26724792 -0.40425602 1.1255621
0.26567787 -0.37985477 1.1069764
0.30544138 -0.41020668 1.1315427
0.29482877 -0.3806015 1.1063116
0.33440101 -0.42474672 1.1449028
0.34487107 -0.42615408 1.1450899
0.34453747 -0.4096151 1.1263193
0.36584392 -0.42439231 1.1432548
0.3747848 -0.42514297 1.1422235
0.38646373 -0.42530841 1.1429307
0.39193979 -0.38168755 1.1157819
0.40719748 -0.40488923 1.1257614
0.41452596 -0.42483741 1.1455239
0.41108486 -0.39636356 1.1259412
0.39221486 -0.40321645 1.123579
0.40515685 -0.40405309 1.1249354
0.45363283 -0.42597541 1.1457027
0.42655742 -0.40684351 1.1267903
0.42669159 -0.3757301 1.1128349
0.48386031 -0.42510462 1.1418879
0.4939236 -0.42227525 1.1417634
-0.47935835 -0.41416997 1.1498905
-0.46630028 -0.41290784 1.1489038
-0.45263222 -0.41167319 1.1495128
-0.36816105 -0.35896742 1.1176326
-0.4354288 -0.41459012 1.1471792
-0.42485318 -0.41546592 1.1465203
-0.41418201 -0.41628447 1.1473767
-0.40527913 -0.41587651 1.1473473
-0.39559135 -0.41657734 1.1461751
-0.30855331 -0.41757116 1.1458966
-0.37442431 -0.41439259 1.146621
-0.32798994 -0.3888447 1.1247679
-0.28372312 -0.38318238 1.1206046
-0.30000079 -0.41660574 1.1435983
-0.30266118 -0.39154762 1.1271142
-0.27046883 -0.39414048 1.1283787
-0.27417579 -0.41695666 1.143243
-0.30467862 -0.41483453 1.1443326
-0.25001937 -0.41258034 1.1451457
-0.28372931 -0.41547698 1.1482027
-0.27503476 -0.41445535 1.1489304
-0.26470429 -0.4158226 1.1498146
-0.25097576 -0.41995993 1.1492248
-0.24798159 -0.41908371 1.148864
-0.23555186 -0.4197017 1.1495821
-0.21969789 -0.4180674 1.148477
-0.20007917 -0.41200095 1.1495957
-0.19192661 -0.41732526 1.1478944
-0.18461262 -0.41599581 1.1479197
-0.17461032 -0.41503942 1.1461964
-0.13718438 -0.41670698 1.1436905
-0.13137332 -0.41534171 1.1446142
-0.13400643 -0.39591348 1.1243439
-0.11780621 -0.41611341 1.1440396
-0.079022765 -0.38756895 1.1105224
-0.10253996 -0.39501637 1.1217059
-0.093465671 -0.40336016 1.1271914
-0.081975572 -0.41727006 1.144006
-0.043575712 -0.37049818 1.0962833
-0.051983587 -0.40304071 1.1267461
-0.040213842 -0.40241793 1.1250174
-0.043928754 -0.39778313 1.1224146
-0.029999856 -0.39914942 1.1262952
-0.016543414 -0.39515868 1.1220801
-0.016382471 -0.39945075 1.122537
0.0010902294 -0.39554146 1.1228695
0.0045262203 -0.41702369 1.1443055
0.018304439 -0.39473787 1.1219133
0.019142551 -0.38781473 1.1178414
0.029272657 -0.41663924 1.1436276
0.042874016 -0.38798565 1.1150345
0.04677587 -0.39397907 1.1225989
0.040609017 -0.39546245 1.1193593
0.059575632 -0.39991698 1.1236126
0.075180098 -0.41543069 1.1464115
0.08070983 -0.40607131 1.1315562
0.078454547 -0.36767256 1.1015817
0.10505426 -0.40395594 1.1313146
0.10496757 -0.39213252 1.1267449
0.090126656 -0.36928648 1.1019696
0.11928803 -0.40178227 1.1306745
0.12429522 -0.39826098 1.1251839
0.15393394 -0.41416231 1.1444744
0.14896011 -0.4025647 1.1300261
0.14782366 -0.39287838 1.119091
0.17025904 -0.40444911 1.1310894
0.16840875 -0.3961767 1.1212319
0.18810916 -0.36370423 1.100425
0.17609771 -0.35693058 1.0924792
0.21699078 -0.37235427 1.0992645
0.22791617 -0.40291852 1.1311868
0.25552291 -0.41497359 1.1415106
0.23806 -0.36867902 1.1003298
0.25670874 -0.40343812 1.130185
0.24856086 -0.36902359 1.1025467
0.25775084 -0.37224901 1.1105016
0.26049531 -0.37928942 1.1070269
0.25453034 -0.38796839 1.1135238
0.29737082 -0.40500307 1.1309386
0.32528853 -0.41593143 1.1448773
0.31024909 -0.39947617 1.1282825
0.30293089 -0.37612531 1.1099612
0.32985184 -0.38228783 1.1173335
0.36333534 -0.41421041 1.1430629
0.37235412 -0.41493574 1.1433258
0.38349891 -0.41372824 1.1404586
0.39610508 -0.41557628 1.141856
0.40393516 -0.41600782 1.1428611
0.39061606 -0.37207708 1.1141744
0.36736843 -0.35616601 1.0933927
0.43392652 -0.41683263 1.1424713
0.43573764 -0.38279548 1.1280284
0.45484528 -0.41664851 1.1447679
0.46582493 -0.41799009 1.1445147
0.4750483 -0.41661835 1.1438869
0.4801614 -0.41670007 1.1403247
-0.48434949 -0.40387294 1.1492876
-0.45421517 -0.4064317 1.1492878
-0.44243622 -0.40548688 1.1488844
-0.35604879 -0.35444495 1.1199695
-0.42443365 -0.40385202 1.146992
-0.41692033 -0.40468267 1.1478417
-0.40701163 -0.40021259 1.1494387
-0.3943488 -0.40535688 1.148083
-0.31641817 -0.35658404 1.1102638
-0.37595665 -0.40628469 1.1471667
-0.36387095 -0.4060832 1.1451079
-0.35479984 -0.40505645 1.1468458
-0.34563318 -0.40607631 1.1451051
-0.33510494 -0.4050394 1.1460705
-0.32470638 -0.40589768 1.1461632
-0.31604406 -0.40499568 1.1451957
-0.26587036 -0.3728357 1.1208793
-0.29681438 -0.40601167 1.1466891
-0.19058838 -0.40641311 1.1488235
-0.18307181 -0.40348038 1.149219
-0.17642322 -0.40557596 1.148132
-0.1651272 -0.40596411 1.1469983
-0.12146796 -0.35225838 1.0895684
-0.14515929 -0.40399215 1.1452721
-0.13321768 -0.40601569 1.145214
-0.12407704 -0.38398096 1.1322484
-0.11767592 -0.38156173 1.1314666
-0.10536822 -0.40455252 1.1453793
-0.094866224 -0.40388545 1.1447936
-0.083391882 -0.40477899 1.1455078
-0.076762602 -0.40475282 1.144601
-0.064549141 -0.40407541 1.14573
-0.055044431 -0.40522677 1.1466584
-0.04558716 -0.40477416 1.1446713
-0.034448564 -0.40329179 1.1454661
-0.025533054 -0.40560651 1.1454834
-0.016053412 -0.40450686 1.1446025
-0.0055765305 -0.40450531 1.1446333
0.032394823 -0.37813789 1.122797
0.01749335 -0.38366374 1.1302141
0.026256245 -0.40471235 1.1463915
0.034726117 -0.4050025 1.1438997
0.044179127 -0.40548694 1.1452322
0.055369765 -0.40605447 1.1455959
0.045189001 -0.36811027 1.1229804
0.074872471 -0.40473744 1.1449001
0.070191003 -0.37466869 1.1270196
0.094280496 -0.40497422 1.1444519
0.10576638 -0.4044444 1.1448027
0.11557114 -0.40496063 1.1450083
0.12561357 -0.40446317 1.1445972
0.13606897 -0.40418255 1.1453751
0.14487053 -0.40538931 1.1440425
0.15468812 -0.40549818 1.14469
0.16543694 -0.40525806 1.1456823
0.17510453 -0.40481386 1.1459864
0.18460153 -0.40433091 1.1459514
