# .PCD v.5 - Point Cloud Data file format
#
FIELDS x y z
SIZE 4 4 4
TYPE F F F
COUNT 1 1 1
POINTS 1960
DATA ascii
-0.37213 -0.72059 1.6404
-0.34837 -0.65272 1.2964
-0.35632 -0.65312 1.2934
-0.36644 -0.65442 1.2936
-0.37311 -0.65428 1.2888
-0.3348 -0.71298 1.6695
-0.3478 -0.71569 1.6732
-0.35466 -0.71633 1.6706
-0.35951 -0.71628 1.666
-0.36438 -0.71623 1.6614
-0.36928 -0.71618 1.6568
-0.37354 -0.71589 1.6516
-0.37258 -0.71376 1.6406
-0.35036 -0.64486 1.2984
-0.36048 -0.6462 1.2986
-0.36947 -0.64705 1.2972
-0.37685 -0.64722 1.2934
-0.33593 -0.70635 1.6705
-0.34689 -0.70842 1.672
-0.35444 -0.70932 1.6701
-0.35661 -0.70832 1.6627
-0.35951 -0.70756 1.656
-0.36444 -0.70751 1.6513
-0.36939 -0.70745 1.6468
-0.34631 -0.6344 1.2915
-0.36083 -0.63766 1.2981
-0.37144 -0.63925 1.2991
-0.32268 -0.69642 1.6666
-0.32756 -0.69636 1.6618
-0.34331 -0.70017 1.6681
-0.34953 -0.7006 1.6648
-0.35375 -0.7003 1.6594
-0.36067 -0.70097 1.6569
-0.36362 -0.7002 1.6502
-0.36793 -0.6999 1.6449
-0.36835 -0.69816 1.6353
-0.34999 -0.62724 1.2959
-0.35688 -0.62718 1.2913
-0.36864 -0.6293 1.2939
-0.37607 -0.62949 1.2902
-0.29996 -0.68113 1.6435
-0.32673 -0.68895 1.6607
-0.33639 -0.69062 1.6607
-0.34938 -0.69352 1.6644
-0.3603 -0.69568 1.666
-0.36519 -0.69563 1.6614
-0.37011 -0.69558 1.6568
-0.37505 -0.69552 1.6523
-0.37348 -0.69301 1.6406
-0.3499 -0.61841 1.2948
-0.35897 -0.61934 1.2934
-0.36588 -0.61928 1.2887
-0.37708 -0.6212 1.2906
0.30513 -0.49329 1.2655
0.29293 -0.49496 1.2617
0.29093 -0.49312 1.2491
-0.28962 -0.67001 1.6329
-0.3368 -0.68553 1.6707
-0.34775 -0.68774 1.6722
-0.35665 -0.68919 1.6717
-0.36419 -0.69014 1.6698
-0.36641 -0.68909 1.6624
-0.36737 -0.68753 1.6536
-0.37233 -0.68747 1.649
-0.37276 -0.68566 1.6394
-0.35461 -0.60849 1.2858
-0.36157 -0.60843 1.2812
-0.37388 -0.6109 1.2847
0.29208 -0.48661 1.2766
0.29164 -0.48422 1.2627
0.28454 -0.48413 1.2546
-0.29435 -0.66437 1.6374
-0.33467 -0.67763 1.6682
-0.34563 -0.67989 1.6697
-0.35051 -0.67984 1.665
-0.35543 -0.67978 1.6603
-0.36036 -0.67973 1.6557
-0.36532 -0.67968 1.6511
-0.37555 -0.68168 1.6521
-0.34931 -0.60043 1.2918
-0.35786 -0.60114 1.2896
-0.36481 -0.60108 1.2849
0.32105 -0.47035 1.2804
0.30591 -0.47313 1.279
0.29668 -0.47382 1.2726
0.28779 -0.47439 1.266
0.27742 -0.47547 1.2607
0.27754 -0.47278 1.2462
-0.30318 -0.66035 1.646
-0.33393 -0.67022 1.6672
-0.34489 -0.67252 1.6687
-0.35448 -0.6743 1.6688
-0.36204 -0.67529 1.667
-0.37091 -0.67681 1.6666
-0.37582 -0.67676 1.662
-0.37615 -0.67486 1.6525
-0.37105 -0.67075 1.6368
-0.3564 -0.59494 1.3012
-0.3633 -0.59488 1.2965
-0.37022 -0.59482 1.2919
0.31777 -0.46281 1.2972
0.31231 -0.46219 1.2877
0.30532 -0.4621 1.2794
0.28875 -0.46547 1.2793
0.28172 -0.46538 1.2712
0.27464 -0.46529 1.263
0.27764 -0.46149 1.246
-0.29434 -0.64952 1.6369
-0.34606 -0.66785 1.6793
-0.3509 -0.66779 1.6746
-0.3531 -0.66668 1.6671
-0.35536 -0.66556 1.6597
-0.36193 -0.66615 1.6567
-0.36821 -0.66663 1.6535
-0.3709 -0.66564 1.6464
-0.35318 -0.65625 1.6169
-0.3543 -0.58502 1.297
-0.36254 -0.58561 1.2943
-0.36842 -0.58502 1.2881
0.31006 -0.46447 1.3586
0.3024 -0.46227 1.3375
0.29866 -0.4611 1.3268
0.30523 -0.45614 1.3076
0.31127 -0.45131 1.2885
0.3017 -0.45217 1.2824
0.29467 -0.45208 1.2742
0.2876 -0.452 1.266
0.28483 -0.45028 1.254
0.27765 -0.45019 1.2459
0.27042 -0.45011 1.2378
-0.31203 -0.64914 1.6544
-0.34266 -0.6594 1.6756
-0.35357 -0.66179 1.677
-0.3573 -0.66127 1.6712
-0.36097 -0.66072 1.6652
-0.36356 -0.6597 1.6581
-0.36853 -0.65964 1.6535
-0.367 -0.65688 1.6418
-0.36364 -0.65329 1.6279
-0.35275 -0.57529 1.2936
-0.36827 -0.57958 1.3016
-0.37518 -0.57952 1.297
0.29745 -0.50265 1.628
0.27845 -0.50723 1.6285
0.31641 -0.4585 1.3939
0.31411 -0.45447 1.369
0.32112 -0.44942 1.3499
0.3197 -0.4474 1.3374
0.31296 -0.44731 1.329
0.30618 -0.44723 1.3207
0.30157 -0.44631 1.3106
0.29026 -0.44788 1.3061
0.28849 -0.44586 1.2935
0.28955 -0.44274 1.2785
0.28249 -0.44265 1.2703
0.27539 -0.44256 1.2622
0.25671 -0.44689 1.2642
0.24527 -0.44846 1.2601
0.23739 -0.44865 1.2528
-0.30394 -0.6385 1.646
-0.34672 -0.65393 1.6794
-0.34852 -0.65261 1.6716
-0.35264 -0.65223 1.666
-0.35997 -0.65318 1.6639
-0.3636 -0.65258 1.6578
-0.36662 -0.6517 1.6511
-0.37164 -0.65164 1.6465
-0.34433 -0.63776 1.6063
-0.35773 -0.56884 1.2997
-0.36466 -0.56878 1.2951
0.29627 -0.493 1.6292
0.32391 -0.45664 1.4536
0.3302 -0.45207 1.4361
0.31627 -0.45478 1.4334
0.31774 -0.45189 1.4193
0.30952 -0.45251 1.4124
0.30509 -0.45172 1.4027
0.30174 -0.45051 1.392
0.29529 -0.45042 1.3838
0.29067 -0.44963 1.3741
0.283 -0.44997 1.3668
0.27641 -0.44988 1.3586
0.27572 -0.44755 1.3456
0.2631 -0.44971 1.3424
0.26485 -0.44639 1.3273
0.25841 -0.44617 1.3189
0.2574 -0.44384 1.3059
0.25048 -0.44375 1.2979
0.24351 -0.44366 1.2899
0.23434 -0.44442 1.2839
0.22372 -0.44574 1.2792
0.22378 -0.44284 1.2649
0.22089 -0.44107 1.2532
0.21368 -0.44098 1.2454
-0.32365 -0.63927 1.6656
-0.33999 -0.64399 1.6723
-0.34485 -0.64392 1.6675
-0.34979 -0.64386 1.6627
-0.35608 -0.64437 1.6594
-0.36105 -0.64432 1.6547
-0.36606 -0.64427 1.6501
-0.36784 -0.64281 1.6419
-0.36775 -0.6405 1.6316
-0.35522 -0.55853 1.2949
-0.36701 -0.56101 1.2974
0.29343 -0.48393 1.6314
0.2964 -0.481 1.618
0.30171 -0.47722 1.6031
0.31279 -0.46105 1.5242
0.30784 -0.46068 1.5153
0.30596 -0.45472 1.4794
0.29998 -0.45463 1.4711
0.30556 -0.45027 1.4543
0.29944 -0.45018 1.446
0.29865 -0.4481 1.4338
0.29242 -0.44801 1.4255
0.29528 -0.4445 1.4103
0.28892 -0.44442 1.402
0.26741 -0.45004 1.4056
0.25802 -0.4511 1.3999
0.2516 -0.45101 1.3919
0.26601 -0.44293 1.367
0.25941 -0.44284 1.359
0.25277 -0.44276 1.3509
0.24094 -0.44467 1.3472
0.22838 -0.44687 1.3442
0.22748 -0.4445 1.3314
0.21779 -0.44556 1.326
0.21097 -0.44547 1.3182
0.2041 -0.44539 1.3104
0.1972 -0.44531 1.3027
0.19025 -0.44522 1.295
0.18467 -0.44457 1.286
0.17763 -0.44448 1.2784
0.16669 -0.44597 1.2744
0.16621 -0.44317 1.2606
-0.34762 -0.63789 1.67
-0.35321 -0.63812 1.666
-0.35882 -0.63836 1.662
-0.36314 -0.63802 1.6566
-0.36814 -0.63796 1.652
-0.37155 -0.6372 1.6456
-0.37436 -0.63614 1.6385
-0.35492 -0.54929 1.2932
-0.36192 -0.54923 1.2885
0.29054 -0.47488 1.6336
0.28539 -0.4748 1.6254
0.30325 -0.46646 1.6026
0.31526 -0.46015 1.5831
0.31947 -0.45659 1.5685
0.31878 -0.45265 1.5449
0.32546 -0.44807 1.5282
0.32725 -0.44523 1.5147
0.32303 -0.44456 1.5052
0.31718 -0.44448 1.4968
0.31128 -0.44439 1.4884
0.30729 -0.44358 1.4787
0.30323 -0.44277 1.4689
0.29718 -0.44268 1.4607
0.29032 -0.44288 1.453
0.27881 -0.44483 1.4487
0.27189 -0.44504 1.4411
0.26645 -0.44466 1.4324
0.25944 -0.44487 1.4249
0.25767 -0.44304 1.4133
0.25132 -0.44295 1.4053
0.24642 -0.44229 1.3961
0.24071 -0.44191 1.3875
0.23422 -0.44183 1.3796
0.22768 -0.44174 1.3716
0.22109 -0.44166 1.3638
0.21812 -0.44012 1.3528
0.21144 -0.44004 1.345
0.20398 -0.44024 1.3378
0.19722 -0.44016 1.3301
0.18969 -0.44037 1.323
0.17499 -0.44348 1.3223
0.16814 -0.4434 1.3147
0.16478 -0.44186 1.304
0.15431 -0.44324 1.2997
0.14453 -0.44432 1.2948
0.13753 -0.44424 1.2874
0.11941 -0.44882 1.2906
-0.34417 -0.63136 1.676
-0.34974 -0.6316 1.6719
-0.35533 -0.63184 1.6678
-0.35962 -0.6315 1.6625
-0.36394 -0.63115 1.6571
-0.367 -0.63022 1.6503
-0.37107 -0.62973 1.6446
-0.37197 -0.62779 1.6354
-0.35574 -0.54062 1.2932
-0.36647 -0.54261 1.294
0.28599 -0.46645 1.6368
0.28085 -0.46637 1.6286
0.28697 -0.46216 1.6133
0.30906 -0.45205 1.5875
0.3229 -0.44489 1.5667
0.31737 -0.44481 1.5583
0.31181 -0.44472 1.5499
0.30619 -0.44464 1.5415
0.30053 -0.44455 1.5332
0.29482 -0.44447 1.5249
0.29142 -0.4435 1.515
0.28796 -0.44253 1.5051
0.2821 -0.44244 1.4969
0.27775 -0.44177 1.4876
0.27179 -0.44168 1.4794
0.26194 -0.44307 1.4741
0.25821 -0.4421 1.4643
0.24412 -0.44512 1.4623
0.23916 -0.44459 1.4534
0.23982 -0.44185 1.4402
0.23963 -0.4394 1.4275
0.23409 -0.43902 1.419
0.22701 -0.43924 1.4116
0.21915 -0.43974 1.405
0.21052 -0.44055 1.3989
0.20408 -0.44046 1.3911
0.19759 -0.44038 1.3834
0.18742 -0.44178 1.3787
0.18086 -0.44169 1.371
0.17427 -0.44161 1.3634
0.16763 -0.44153 1.3558
0.16453 -0.43997 1.3451
0.15708 -0.44018 1.3382
0.1503 -0.4401 1.3307
0.14207 -0.44061 1.3245
0.13522 -0.44053 1.3171
0.12479 -0.43584 1.2851
-0.35284 -0.6235 1.6649
-0.36505 -0.62671 1.6678
-0.37001 -0.62666 1.6632
-0.37499 -0.62661 1.6585
-0.37709 -0.62522 1.6508
-0.37219 -0.62057 1.6352
-0.3566 -0.53193 1.2932
-0.36361 -0.53187 1.2885
0.30575 -0.44907 1.6251
0.29083 -0.45258 1.6228
0.28964 -0.451 1.612
0.29264 -0.44574 1.5867
0.28802 -0.44536 1.5779
0.28255 -0.44527 1.5697
0.27704 -0.44519 1.5615
0.26832 -0.4463 1.5554
0.26273 -0.44622 1.5473
0.25709 -0.44614 1.5392
0.25141 -0.44605 1.5311
0.25267 -0.44327 1.5181
0.24378 -0.44439 1.5123
0.23795 -0.4443 1.5043
0.23822 -0.44182 1.4918
0.23227 -0.44174 1.4838
0.22476 -0.44225 1.477
0.21646 -0.44307 1.4709
0.21041 -0.44299 1.463
0.20431 -0.44291 1.4552
0.2019 -0.44132 1.4445
0.19943 -0.43974 1.4337
0.18574 -0.44266 1.432
0.178 -0.44318 1.4255
0.16875 -0.4443 1.4203
0.16387 -0.44362 1.4115
0.17279 -0.43722 1.391
0.16629 -0.43714 1.3834
0.15975 -0.43706 1.3758
0.15102 -0.43788 1.3702
0.14441 -0.4378 1.3627
0.12708 -0.44223 1.3648
0.12398 -0.44065 1.3542
0.13137 -0.43455 1.334
0.11965 -0.43657 1.3312
0.094223 -0.43844 1.314
-0.35337 -0.61647 1.6651
-0.36722 -0.62049 1.6697
-0.37217 -0.62044 1.6651
-0.37715 -0.62039 1.6605
-0.37442 -0.61671 1.6474
-0.37373 -0.61395 1.6365
-0.35322 -0.52082 1.2869
-0.36608 -0.52407 1.2908
0.26386 -0.45457 1.6514
0.25879 -0.45449 1.6433
0.22877 -0.46383 1.6509
0.27442 -0.44238 1.5989
0.26906 -0.44229 1.5907
0.26048 -0.44343 1.5847
0.24955 -0.44326 1.5685
0.24402 -0.44318 1.5605
0.22678 -0.44309 1.5368
0.22687 -0.44072 1.5247
0.2211 -0.44063 1.5168
0.20915 -0.44299 1.5134
0.20332 -0.44291 1.5056
0.202 -0.441 1.4944
0.19606 -0.44092 1.4866
0.19008 -0.44084 1.4788
0.18706 -0.43953 1.4688
0.18023 -0.43976 1.4617
0.17634 -0.43876 1.4522
0.17536 -0.43654 1.4404
0.16396 -0.4386 1.437
0.15771 -0.43852 1.4294
0.14702 -0.44027 1.4255
0.13925 -0.4408 1.4193
0.1358 -0.4395 1.4094
0.12939 -0.43942 1.402
0.13011 -0.43628 1.3883
0.12323 -0.43635 1.3812
0.11631 -0.43643 1.3742
0.10971 -0.43635 1.3669
0.10307 -0.43627 1.3596
0.094296 -0.43711 1.3543
0.066513 -0.44022 1.3401
-0.3407 -0.60801 1.6715
-0.34831 -0.60918 1.6694
-0.35394 -0.60943 1.6653
-0.36351 -0.61153 1.6654
-0.3685 -0.61147 1.6608
-0.37351 -0.61142 1.6561
-0.3763 -0.6103 1.6491
-0.3616 -0.51637 1.2979
-0.37017 -0.51722 1.2956
0.23728 -0.45275 1.6572
0.22901 -0.45391 1.6512
0.21317 -0.45594 1.639
0.21399 -0.45353 1.6272
0.21273 -0.4519 1.6167
0.2048 -0.44167 1.5527
0.19917 -0.44159 1.5449
0.19657 -0.44027 1.5349
0.19085 -0.44019 1.5271
0.19118 -0.43763 1.5148
0.18534 -0.43755 1.5071
0.1772 -0.4384 1.5011
0.17128 -0.43832 1.4934
0.16383 -0.43886 1.487
0.15859 -0.43847 1.4788
0.15404 -0.43776 1.4701
0.14796 -0.43768 1.4625
0.14625 -0.43574 1.4514
0.14739 -0.43255 1.4379
0.13529 -0.43496 1.4353
0.12993 -0.43169 1.4143
0.11851 -0.43379 1.4113
0.11639 -0.43185 1.4002
0.10449 -0.43414 1.3976
0.092469 -0.43649 1.3953
0.081742 -0.43828 1.392
0.069615 -0.44069 1.39
0.063091 -0.44061 1.3829
0.041606 -0.44114 1.3635
0.034253 -0.44138 1.3573
-0.35157 -0.60099 1.6625
-0.3592 -0.60218 1.6605
-0.36422 -0.60213 1.6558
-0.36927 -0.60208 1.6511
-0.36853 -0.5992 1.6401
-0.36254 -0.50767 1.298
-0.36956 -0.50761 1.2933
0.23507 -0.44374 1.659
0.21879 -0.44806 1.6581
0.20174 -0.4527 1.6579
0.19589 -0.45294 1.6506
0.15983 -0.46513 1.6631
0.15481 -0.46506 1.6555
0.17612 -0.44327 1.5734
0.17156 -0.44279 1.565
0.16599 -0.44271 1.5574
0.16267 -0.44169 1.5481
0.15283 -0.44334 1.5436
0.16111 -0.43745 1.5255
0.15231 -0.43863 1.5202
0.14198 -0.44044 1.5162
0.1339 -0.44131 1.5104
0.12803 -0.44123 1.503
0.12435 -0.44021 1.4938
0.11363 -0.44216 1.4903
0.11463 -0.43909 1.4773
0.1104 -0.43822 1.4684
0.10867 -0.43625 1.4575
0.10099 -0.43404 1.4389
0.094729 -0.43396 1.4317
0.086995 -0.43452 1.4257
0.075219 -0.43685 1.4234
0.060168 -0.44066 1.424
0.056637 -0.43932 1.4145
0.047435 -0.44051 1.41
0.036132 -0.44264 1.4076
0.018075 -0.44179 1.3857
-0.33725 -0.59165 1.6673
-0.34687 -0.59382 1.6672
-0.35515 -0.59535 1.6659
-0.36015 -0.59529 1.6611
-0.36125 -0.59332 1.6522
-0.36665 -0.59343 1.6479
-0.36883 -0.59193 1.64
-0.10243 -0.44628 1.2943
-0.10639 -0.44462 1.2846
-0.11227 -0.44392 1.2771
-0.1182 -0.44322 1.2696
-0.36089 -0.4974 1.2941
-0.36795 -0.49734 1.2894
0.26606 -0.42363 1.6515
0.26096 -0.42355 1.6433
0.22858 -0.43433 1.6523
0.19555 -0.44544 1.6622
0.18414 -0.44792 1.6586
0.17591 -0.44912 1.6529
0.17082 -0.44904 1.6452
0.14248 -0.44729 1.5975
0.13708 -0.44721 1.5901
0.12387 -0.44802 1.5768
0.13203 -0.44218 1.5593
0.12808 -0.4414 1.5506
0.12939 -0.43836 1.5378
0.12666 -0.437 1.5281
0.11901 -0.43772 1.5222
0.11189 -0.43821 1.5158
0.10364 -0.43917 1.5104
0.093379 -0.441 1.5067
0.088212 -0.4406 1.4989
0.084459 -0.43956 1.4899
0.079918 -0.43884 1.4815
0.068518 -0.43837 1.4666
0.074578 -0.43284 1.449
0.064078 -0.43469 1.4456
0.053226 -0.4367 1.4426
0.050148 -0.43518 1.4328
0.042432 -0.43574 1.4271
0.031197 -0.43791 1.4246
0.029016 -0.43591 1.4139
0.014988 -0.43937 1.4141
0.011328 -0.43801 1.4048
0.004863 -0.43794 1.398
-0.0050451 -0.43947 1.3946
-0.33824 -0.5847 1.6679
-0.35444 -0.59011 1.6747
-0.35941 -0.59006 1.6699
-0.35687 -0.58629 1.6573
-0.3648 -0.58767 1.6556
-0.36987 -0.58761 1.6509
-0.12169 -0.44246 1.3015
-0.12472 -0.4403 1.2908
-0.12967 -0.4391 1.2822
-0.13681 -0.43903 1.2763
-0.14822 -0.44121 1.2754
-0.159 -0.44308 1.2739
-0.15844 -0.43882 1.2586
-0.3609 -0.48803 1.2927
-0.3706 -0.48959 1.292
0.28387 -0.40636 1.641
0.26586 -0.41147 1.6407
0.2247 -0.42599 1.6552
0.20208 -0.43305 1.6585
0.1716 -0.44336 1.6671
0.16183 -0.44523 1.6625
0.14259 -0.45099 1.6643
0.13363 -0.45254 1.6594
0.10135 -0.45492 1.6271
0.094743 -0.44593 1.5759
0.089967 -0.44553 1.568
0.084396 -0.44545 1.5608
0.081767 -0.44407 1.5513
0.078701 -0.44286 1.5421
0.071139 -0.4436 1.5364
0.065393 -0.44352 1.5293
0.061072 -0.4428 1.521
0.055241 -0.44272 1.514
0.04937 -0.44265 1.507
0.044699 -0.43924 1.4869
0.040824 -0.43819 1.478
0.037602 -0.43681 1.4686
0.032542 -0.43625 1.4608
0.025317 -0.43666 1.4548
0.012806 -0.43952 1.4537
0.0066007 -0.43944 1.4469
0.00035799 -0.43937 1.4401
-0.005923 -0.4393 1.4334
-0.019113 -0.44249 1.4332
-0.025431 -0.44241 1.4266
-0.33661 -0.57644 1.6659
-0.34492 -0.57802 1.6645
-0.35449 -0.58024 1.6644
-0.35882 -0.57984 1.6589
-0.36388 -0.57978 1.6542
-0.36897 -0.57973 1.6495
-0.13939 -0.44549 1.335
-0.14254 -0.44346 1.3247
-0.14885 -0.44306 1.3181
-0.1558 -0.44299 1.3122
-0.16097 -0.44195 1.3042
-0.168 -0.44188 1.2984
-0.17776 -0.44328 1.2959
-0.18574 -0.44371 1.2913
-0.19284 -0.44364 1.2856
-0.2215 -0.44749 1.2781
-0.35121 -0.47706 1.2922
-0.36622 -0.48192 1.2992
-0.37327 -0.48186 1.2945
0.28227 -0.39676 1.6425
0.2771 -0.39667 1.6342
0.2635 -0.40005 1.6312
0.15613 -0.43582 1.6557
0.12477 -0.44678 1.6657
0.11075 -0.4505 1.6644
0.10103 -0.4524 1.6602
0.094412 -0.45299 1.654
0.076955 -0.45819 1.6554
0.071861 -0.45812 1.6483
0.060194 -0.44399 1.5682
0.059799 -0.4416 1.5571
0.054157 -0.44153 1.55
0.049945 -0.44079 1.5418
0.044218 -0.44072 1.5348
0.036998 -0.4413 1.529
0.032648 -0.44057 1.5209
0.027525 -0.44016 1.5134
0.023076 -0.43943 1.5053
0.023572 -0.43638 1.4928
0.017573 -0.4363 1.486
0.012596 -0.43573 1.4782
-0.0022795 -0.4398 1.4793
-0.0083532 -0.43972 1.4726
-0.010285 -0.43767 1.4621
-0.016454 -0.43759 1.4554
-0.022662 -0.43752 1.4488
-0.028906 -0.43745 1.4422
-0.035187 -0.43738 1.4356
-0.34389 -0.5726 1.673
-0.3497 -0.57296 1.669
-0.35484 -0.57297 1.6644
-0.35988 -0.57292 1.6596
-0.36494 -0.57287 1.6549
-0.36811 -0.57182 1.6481
-0.15347 -0.43946 1.3366
-0.15727 -0.43774 1.3271
-0.16114 -0.43601 1.3177
-0.16811 -0.43594 1.3118
-0.17511 -0.43587 1.3061
-0.18006 -0.43464 1.2978
-0.1972 -0.4402 1.3045
-0.20395 -0.43997 1.2985
-0.22035 -0.4452 1.3047
-0.22565 -0.44414 1.2969
-0.23159 -0.44341 1.29
-0.23184 -0.43936 1.2756
-0.2453 -0.44295 1.2784
-0.24797 -0.44022 1.267
-0.29207 -0.44452 1.2514
-0.2994 -0.44446 1.2463
-0.3458 -0.46868 1.298
-0.355 -0.46995 1.2963
-0.36156 -0.46956 1.2908
-0.36764 -0.46883 1.2845
0.28465 -0.38549 1.6415
0.27946 -0.38541 1.6332
0.28061 -0.38265 1.6209
0.10931 -0.44172 1.6657
0.10038 -0.44332 1.661
0.095308 -0.44324 1.6537
0.079401 -0.44786 1.654
0.05855 -0.45465 1.658
0.037221 -0.44226 1.575
0.029828 -0.44302 1.5695
0.024245 -0.44295 1.5626
0.017164 -0.44355 1.5569
0.017321 -0.44079 1.5453
0.016301 -0.43854 1.5345
0.0080049 -0.43964 1.5298
0.0079297 -0.43688 1.5181
0.0077616 -0.43412 1.5064
0.0018271 -0.43405 1.4996
-0.011203 -0.43733 1.4991
-0.024201 -0.44062 1.4987
-0.030178 -0.44055 1.4921
-0.036191 -0.44048 1.4855
-0.040858 -0.43973 1.4777
-0.040072 -0.4363 1.4648
-0.046239 -0.43623 1.4582
-0.05925 -0.43952 1.4583
-0.33932 -0.5628 1.668
-0.34828 -0.56477 1.6672
-0.35853 -0.5674 1.6678
-0.36485 -0.56802 1.6644
-0.36861 -0.5673 1.6583
-0.37369 -0.56725 1.6536
-0.16878 -0.44174 1.367
-0.17025 -0.43882 1.3552
-0.17611 -0.43825 1.3483
-0.18293 -0.43818 1.3426
-0.18977 -0.43811 1.3368
-0.19665 -0.43805 1.3312
-0.208 -0.44049 1.3309
-0.21517 -0.44057 1.3257
-0.21976 -0.43916 1.3172
-0.22674 -0.43909 1.3117
-0.23376 -0.43903 1.3062
-0.24829 -0.44335 1.3105
-0.25532 -0.44329 1.3051
-0.25726 -0.44019 1.2931
-0.25368 -0.43372 1.2734
-0.26899 -0.43852 1.2791
-0.27827 -0.43973 1.2767
-0.3112 -0.44652 1.2772
-0.32163 -0.44849 1.2768
-0.33818 -0.45434 1.2854
-0.35854 -0.4627 1.3
-0.36693 -0.46348 1.2972
0.28296 -0.37588 1.6431
0.097364 -0.43525 1.6633
0.091521 -0.43551 1.6566
0.055635 -0.44903 1.6709
0.04716 -0.45048 1.6663
0.029512 -0.45602 1.6684
0.012892 -0.44143 1.583
0.0073739 -0.44135 1.5762
0.0018183 -0.44128 1.5694
-0.0037752 -0.44121 1.5627
-0.00074959 -0.43705 1.5487
-0.0057415 -0.43664 1.5413
-0.010062 -0.43589 1.5334
-0.01728 -0.4365 1.5279
-0.025936 -0.43779 1.5237
-0.031081 -0.43738 1.5165
-0.03627 -0.43696 1.5093
-0.042199 -0.43689 1.5028
-0.046083 -0.4358 1.4943
-0.054167 -0.43675 1.4897
-0.062952 -0.43804 1.4859
-0.074478 -0.4407 1.4846
-0.080544 -0.44063 1.4783
-0.086645 -0.44056 1.472
-0.33912 -0.55516 1.6674
-0.34613 -0.55613 1.6645
-0.35119 -0.55608 1.6597
-0.36273 -0.55944 1.6617
-0.36267 -0.55665 1.6515
-0.3678 -0.5566 1.6468
-0.19008 -0.44013 1.3773
-0.19614 -0.43972 1.3709
-0.20372 -0.44015 1.3663
-0.20652 -0.43786 1.356
-0.2157 -0.43917 1.3533
-0.22455 -0.44028 1.3502
-0.22812 -0.43834 1.3407
-0.23499 -0.43827 1.3352
-0.24189 -0.43821 1.3298
-0.25055 -0.43917 1.3266
-0.2575 -0.43911 1.3213
-0.27792 -0.43856 1.3047
-0.30147 -0.44424 1.3072
-0.30523 -0.44212 1.2976
-0.31561 -0.44411 1.2971
-0.32434 -0.44508 1.2944
-0.33736 -0.44879 1.298
-0.3592 -0.45821 1.3146
-0.35524 -0.45103 1.2937
0.29162 -0.3618 1.6382
0.042269 -0.44352 1.67
0.025036 -0.44897 1.6718
0.018486 -0.44959 1.666
0.012666 -0.44986 1.6597
0.0038031 -0.45151 1.6556
-0.013685 -0.45713 1.6582
-0.016155 -0.43776 1.5729
-0.027364 -0.43762 1.5595
-0.037304 -0.43962 1.5566
-0.04298 -0.43955 1.55
-0.048692 -0.43948 1.5435
-0.050576 -0.43751 1.5336
-0.052535 -0.43554 1.5237
-0.058394 -0.43546 1.5172
-0.063598 -0.43505 1.5101
-0.069534 -0.43498 1.5037
-0.075507 -0.43491 1.4973
-0.077425 -0.43277 1.4871
-0.089592 -0.43581 1.4866
-0.10877 -0.44247 1.493
-0.34159 -0.54888 1.6695
-0.34728 -0.54918 1.6653
-0.35299 -0.54947 1.6612
-0.35808 -0.54942 1.6564
-0.37152 -0.55386 1.6605
-0.37661 -0.55381 1.6558
-0.20304 -0.44163 1.4046
-0.21045 -0.44206 1.4
-0.21457 -0.44061 1.3916
-0.22507 -0.44278 1.3907
-0.23287 -0.44341 1.3866
-0.2383 -0.44266 1.3797
-0.24497 -0.4426 1.3743
-0.25166 -0.44253 1.3689
-0.2537 -0.4397 1.3577
-0.25933 -0.43894 1.3508
-0.314 -0.44246 1.3231
-0.34097 -0.45508 1.3459
-0.35325 -0.45849 1.3487
-0.36332 -0.46052 1.3485
-0.36612 -0.45783 1.338
-0.36715 -0.45394 1.3247
-0.3586 -0.44363 1.2971
0.28827 -0.35282 1.6408
0.023572 -0.44056 1.6731
0.017022 -0.44119 1.6673
0.0066742 -0.44357 1.6643
8.7738e-05 -0.4442 1.6586
-0.025226 -0.45357 1.667
-0.051897 -0.46365 1.6768
-0.042976 -0.44146 1.595
-0.054606 -0.43018 1.537
-0.0618 -0.43081 1.5318
-0.066932 -0.43039 1.5247
-0.085199 -0.43662 1.5296
-0.092412 -0.43725 1.5246
-0.097253 -0.43666 1.5174
-0.1052 -0.43764 1.5131
-0.11113 -0.43757 1.5069
-0.12951 -0.44397 1.5127
-0.34801 -0.54473 1.6757
-0.35302 -0.54468 1.6708
-0.35613 -0.54358 1.664
-0.36121 -0.54352 1.6592
-0.36567 -0.54312 1.6538
-0.37081 -0.54306 1.649
-0.2207 -0.44228 1.4241
-0.22404 -0.44044 1.415
-0.22809 -0.43897 1.4066
-0.23703 -0.44031 1.404
-0.24417 -0.4406 1.3992
-0.25074 -0.44054 1.3938
-0.34633 -0.45356 1.3663
-0.35308 -0.4535 1.3614
-0.36173 -0.45466 1.3593
-0.36206 -0.45037 1.3453
-0.35584 -0.44167 1.3217
-0.36205 -0.44108 1.3158
-0.36672 -0.43944 1.3075
0.29126 -0.34103 1.6395
0.011204 -0.43238 1.6611
-0.00065625 -0.4355 1.6593
-0.021832 -0.44305 1.6646
-0.035474 -0.44706 1.6644
-0.042787 -0.44806 1.6595
-0.050856 -0.44941 1.6553
-0.10169 -0.44183 1.5672
-0.097273 -0.4366 1.5519
-0.10193 -0.43598 1.5447
-0.10769 -0.43592 1.5385
-0.13055 -0.44474 1.5482
-0.1363 -0.44467 1.5422
-0.13735 -0.44212 1.5316
-0.34398 -0.53497 1.6711
-0.34903 -0.53492 1.6663
-0.35863 -0.53736 1.6662
-0.36371 -0.5373 1.6614
-0.36623 -0.53581 1.6538
-0.37106 -0.53558 1.6488
-0.24324 -0.44603 1.4491
-0.24008 -0.44045 1.4327
-0.23828 -0.43558 1.4177
-0.24476 -0.43551 1.4122
-0.25965 -0.44044 1.4169
-0.26672 -0.44074 1.4123
-0.35822 -0.452 1.3813
-0.36188 -0.44996 1.3724
-0.36587 -0.44809 1.3637
-0.36461 -0.44268 1.3475
-0.36723 -0.43976 1.3367
-0.3673 -0.43507 1.3219
-0.36543 -0.42894 1.304
0.29415 -0.32921 1.6383
-0.015093 -0.43084 1.6596
-0.030612 -0.4358 1.6608
-0.046449 -0.44095 1.6625
-0.064436 -0.44718 1.666
-0.075023 -0.44981 1.6638
-0.11016 -0.43716 1.5746
-0.11577 -0.4371 1.5684
-0.13104 -0.44207 1.5711
-0.13667 -0.44201 1.565
-0.13961 -0.4405 1.5564
-0.14261 -0.43899 1.5479
-0.14837 -0.43893 1.5418
-0.34782 -0.52946 1.6747
-0.35287 -0.52941 1.6698
-0.36048 -0.53078 1.6676
-0.36556 -0.53072 1.6629
-0.3719 -0.53137 1.6594
-0.36248 -0.52302 1.6389
-0.25791 -0.44178 1.4526
-0.26178 -0.44027 1.4444
-0.26452 -0.43804 1.4348
-0.27091 -0.43798 1.4295
-0.3677 -0.44904 1.3931
-0.36252 -0.44111 1.3719
-0.36011 -0.4349 1.3542
-0.36268 -0.43195 1.3433
-0.35898 -0.42465 1.3232
-0.36258 -0.42224 1.3134
-0.36471 -0.41874 1.3014
-0.37185 -0.41868 1.2966
0.29698 -0.31734 1.6371
-0.038394 -0.43066 1.6669
-0.046444 -0.43205 1.6625
-0.051568 -0.43198 1.656
-0.079022 -0.44303 1.667
-0.097582 -0.44971 1.6714
-0.1099 -0.45329 1.671
-0.12218 -0.45687 1.6707
-0.13116 -0.4392 1.5932
-0.13599 -0.43876 1.5865
-0.15275 -0.43857 1.5684
-0.15637 -0.43741 1.5606
-0.16207 -0.43734 1.5546
-0.17249 -0.43984 1.5533
-0.34323 -0.51924 1.6695
-0.35749 -0.52437 1.6742
-0.35657 -0.52092 1.6631
-0.36168 -0.52086 1.6583
-0.36683 -0.52081 1.6535
-0.3701 -0.51966 1.6467
-0.27236 -0.44136 1.4685
-0.27495 -0.4391 1.459
-0.2905 -0.44081 1.4521
-0.35522 -0.4491 1.4294
-0.35998 -0.44794 1.4223
-0.36424 -0.44642 1.4145
-0.36856 -0.44489 1.4068
-0.36817 -0.44016 1.3924
-0.36053 -0.43044 1.3677
-0.35823 -0.41449 1.3206
-0.35217 -0.40526 1.2966
-0.35884 -0.40483 1.291
-0.36605 -0.40478 1.2862
0.27836 -0.31537 1.6491
-0.065579 -0.4301 1.667
-0.07616 -0.4328 1.6648
-0.086002 -0.43514 1.6622
-0.091139 -0.43507 1.6558
-0.11502 -0.44462 1.6648
-0.12014 -0.44455 1.6586
-0.12957 -0.4467 1.656
-0.139 -0.44886 1.6535
-0.1535 -0.44225 1.613
-0.15823 -0.44181 1.6064
-0.16621 -0.43699 1.5808
-0.17282 -0.43748 1.5758
-0.18649 -0.44186 1.5777
-0.34872 -0.51465 1.6747
-0.35149 -0.51327 1.6675
-0.3598 -0.51508 1.666
-0.36427 -0.51465 1.6605
-0.36941 -0.5146 1.6557
-0.36514 -0.50898 1.6407
-0.3035 -0.43985 1.4668
-0.36417 -0.45846 1.4787
-0.36635 -0.4558 1.4688
-0.36269 -0.44925 1.4511
-0.3592 -0.44269 1.4334
-0.3556 -0.43595 1.4152
-0.36213 -0.43589 1.4104
-0.36868 -0.43583 1.4056
-0.36432 -0.4283 1.3858
-0.34382 -0.39462 1.2981
-0.35206 -0.3953 1.2948
-0.36291 -0.39785 1.2953
-0.37011 -0.39779 1.2906
0.28665 -0.30092 1.6446
-0.087551 -0.42713 1.6635
-0.11 -0.43606 1.6711
-0.11797 -0.43749 1.6672
-0.12452 -0.43817 1.6622
-0.14069 -0.44391 1.6653
-0.15043 -0.44628 1.6631
-0.15768 -0.44734 1.6589
-0.18037 -0.45665 1.6681
-0.18549 -0.45659 1.6623
-0.18683 -0.45159 1.6427
-0.18041 -0.44515 1.6263
-0.33491 -0.50194 1.6703
-0.34062 -0.50224 1.666
-0.35539 -0.50782 1.6711
-0.36049 -0.50776 1.6662
-0.3637 -0.50658 1.6594
-0.36823 -0.50615 1.6539
-0.37216 -0.50535 1.6478
-0.31825 -0.44021 1.4836
-0.35828 -0.45792 1.5076
-0.35241 -0.45015 1.488
-0.35566 -0.44822 1.4795
-0.35783 -0.44553 1.4696
-0.35953 -0.44246 1.4589
-0.36385 -0.44109 1.4515
-0.36432 -0.43708 1.439
-0.36795 -0.43514 1.4305
-0.37 -0.43208 1.4198
-0.36183 -0.38715 1.292
-0.37161 -0.38895 1.291
0.28934 -0.28899 1.6435
-0.14187 -0.43594 1.6662
-0.15195 -0.43854 1.6643
-0.1571 -0.43847 1.6583
-0.16228 -0.43841 1.6523
-0.17793 -0.44404 1.6555
-0.2001 -0.45328 1.6647
-0.20972 -0.45569 1.663
-0.21213 -0.45411 1.6548
-0.34458 -0.49675 1.6696
-0.35033 -0.49707 1.6653
-0.35547 -0.49702 1.6605
-0.36064 -0.49697 1.6556
-0.3652 -0.49653 1.6501
-0.37042 -0.49648 1.6453
-0.35864 -0.45734 1.5313
-0.36421 -0.45707 1.5261
-0.35353 -0.44616 1.5008
-0.35585 -0.44363 1.4913
-0.36082 -0.44281 1.485
-0.35786 -0.43666 1.4685
-0.36015 -0.43393 1.4586
-0.36225 -0.43102 1.4482
-0.36276 -0.42696 1.4357
-0.36491 -0.37942 1.2949
0.29039 -0.27778 1.6435
-0.15069 -0.42926 1.6632
-0.15725 -0.42996 1.6583
-0.16733 -0.43259 1.6566
-0.17948 -0.43637 1.6567
-0.19401 -0.4415 1.6591
-0.21054 -0.44778 1.6635
-0.22733 -0.45426 1.6684
-0.3434 -0.48822 1.6679
-0.35046 -0.48932 1.665
-0.3537 -0.48811 1.6581
-0.35636 -0.48652 1.6505
-0.3616 -0.48647 1.6457
-0.36686 -0.48641 1.6408
-0.36811 -0.48385 1.6316
-0.34661 -0.46704 1.597
-0.34356 -0.46159 1.5824
-0.35527 -0.45047 1.5383
-0.36055 -0.45003 1.5327
-0.35475 -0.44226 1.5136
-0.35612 -0.43912 1.503
-0.35642 -0.43521 1.491
-0.35855 -0.43245 1.481
-0.36475 -0.43239 1.4762
-0.36984 -0.43156 1.4699
-0.36648 -0.37056 1.2954
0.29217 -0.26616 1.643
-0.17425 -0.43078 1.6728
-0.17937 -0.43072 1.6669
-0.18453 -0.43065 1.661
-0.19247 -0.43215 1.6576
-0.20043 -0.43364 1.6542
-0.235 -0.45033 1.6751
-0.24011 -0.45027 1.6695
-0.24659 -0.45099 1.6652
-0.25344 -0.4519 1.6613
-0.29941 -0.46338 1.6539
-0.3249 -0.47548 1.6691
-0.33521 -0.47854 1.6693
-0.34292 -0.48005 1.667
-0.35222 -0.48253 1.6663
-0.36151 -0.48501 1.6658
-0.36666 -0.48496 1.6609
-0.37059 -0.48412 1.6548
-0.37021 -0.48056 1.6439
-0.37239 -0.47856 1.6357
-0.37588 -0.47733 1.6289
-0.35984 -0.46362 1.6
-0.35808 -0.45888 1.5869
-0.35751 -0.45108 1.5634
-0.35944 -0.44853 1.5541
-0.36109 -0.44574 1.5443
-0.35225 -0.43592 1.5218
-0.35589 -0.4343 1.514
-0.35989 -0.43288 1.5067
-0.36107 -0.42951 1.4957
-0.3672 -0.42945 1.4909
-0.3625 -0.35742 1.2876
0.28369 -0.2596 1.6488
-0.2013 -0.42867 1.6652
-0.21914 -0.4359 1.6708
-0.23109 -0.43979 1.6713
-0.23623 -0.43973 1.6657
-0.25488 -0.44755 1.6727
-0.26069 -0.44789 1.6678
-0.27385 -0.45256 1.67
-0.31182 -0.46274 1.6659
-0.31861 -0.46367 1.6624
-0.33347 -0.46954 1.6671
-0.34568 -0.47383 1.6693
-0.35274 -0.47496 1.6664
-0.35854 -0.4753 1.6621
-0.36373 -0.47525 1.6573
-0.36582 -0.47322 1.6491
-0.36736 -0.47079 1.6402
-0.3699 -0.46896 1.6323
-0.36513 -0.46239 1.6162
-0.35656 -0.45325 1.5956
-0.35425 -0.44806 1.5818
-0.35746 -0.4464 1.5741
-0.36135 -0.44516 1.5671
-0.35815 -0.43916 1.5517
-0.3622 -0.43792 1.5447
-0.35986 -0.43233 1.53
-0.35649 -0.42595 1.5138
-0.36109 -0.4249 1.5071
-0.35716 -0.34878 1.2935
-0.36522 -0.34932 1.2898
0.29007 -0.24558 1.6455
-0.21323 -0.42405 1.6653
-0.22453 -0.42758 1.6651
-0.23648 -0.43151 1.6657
-0.24166 -0.43145 1.6601
-0.2549 -0.43618 1.6621
-0.26971 -0.44188 1.6657
-0.28415 -0.44742 1.6693
-0.2929 -0.44953 1.6674
-0.30853 -0.45586 1.6725
-0.31758 -0.45821 1.6712
-0.31886 -0.45575 1.6622
-0.32792 -0.45809 1.661
-0.33313 -0.45804 1.6559
-0.35044 -0.46558 1.6635
-0.36321 -0.47032 1.6665
-0.36839 -0.47027 1.6617
-0.36112 -0.46222 1.6434
-0.36333 -0.46016 1.6352
-0.36684 -0.45891 1.6283
-0.36918 -0.45686 1.6201
-0.35512 -0.44399 1.5933
-0.358 -0.44213 1.5853
-0.36391 -0.44226 1.5807
-0.3666 -0.4402 1.5724
-0.36284 -0.43375 1.5564
-0.35629 -0.42529 1.5368
-0.36104 -0.42444 1.5305
-0.3695 -0.34243 1.2944
0.28933 -0.23508 1.6466
-0.20535 -0.41088 1.658
-0.22347 -0.41849 1.6639
-0.23609 -0.42287 1.6651
-0.24561 -0.42541 1.6635
-0.26999 -0.43697 1.676
-0.27957 -0.43962 1.6748
-0.28933 -0.44239 1.6739
-0.29645 -0.44354 1.6705
-0.30292 -0.44429 1.6665
-0.31558 -0.44888 1.6687
-0.3243 -0.45105 1.6672
-0.33077 -0.45181 1.6634
-0.3347 -0.45094 1.657
-0.34249 -0.4525 1.6547
-0.3509 -0.45447 1.653
-0.35616 -0.45442 1.6481
-0.36395 -0.45598 1.6458
-0.36926 -0.45593 1.641
-0.36568 -0.45001 1.6263
-0.35214 -0.43739 1.6004
-0.35738 -0.43711 1.5951
-0.36237 -0.43665 1.5895
-0.35004 -0.42445 1.5639
-0.35077 -0.42096 1.553
-0.35514 -0.41989 1.5464
-0.36602 -0.33524 1.303
-0.37331 -0.33519 1.2981
0.296 -0.22068 1.6431
0.29177 -0.22001 1.6338
0.31311 -0.11823 1.2852
0.29734 -0.12303 1.2835
-0.27193 -0.42666 1.6672
-0.28239 -0.42987 1.6668
-0.29283 -0.43308 1.6666
-0.30356 -0.4365 1.6668
-0.31297 -0.43911 1.6657
-0.32397 -0.44273 1.6664
-0.33557 -0.44677 1.6678
-0.34076 -0.44671 1.6628
-0.34883 -0.4485 1.6607
-0.3569 -0.45029 1.6588
-0.36214 -0.45023 1.6538
-0.35563 -0.4424 1.6363
-0.361 -0.44235 1.6313
-0.35577 -0.43518 1.6147
-0.35899 -0.43359 1.6073
-0.35969 -0.43026 1.5969
-0.36349 -0.42898 1.59
-0.35559 -0.31654 1.2856
-0.37107 -0.32305 1.2928
0.30429 -0.11083 1.2925
0.30281 -0.10722 1.2787
0.29535 -0.10713 1.27
0.28439 -0.1091 1.2644
0.27684 -0.10901 1.2558
-0.29644 -0.4271 1.6697
-0.30358 -0.42829 1.6664
-0.31009 -0.42906 1.6624
-0.31533 -0.429 1.6572
-0.3308 -0.43557 1.6625
-0.33541 -0.4351 1.6567
-0.34447 -0.43753 1.6556
-0.35162 -0.43872 1.6526
-0.35443 -0.43701 1.645
-0.35977 -0.43695 1.6401
-0.35899 -0.43276 1.6285
-0.35867 -0.4288 1.6172
-0.35281 -0.421 1.5996
-0.35178 -0.41639 1.5872
-0.36204 -0.31131 1.2932
0.29625 -0.19849 1.6443
0.29088 -0.1984 1.6356
0.31374 -0.11016 1.3434
0.30663 -0.11007 1.3346
0.31003 -0.10371 1.3172
0.30417 -0.10278 1.3073
0.29789 -0.10206 1.2977
0.29156 -0.10134 1.2881
0.28275 -0.10208 1.2806
0.27253 -0.10366 1.2744
0.26161 -0.10566 1.2689
0.24999 -0.10808 1.264
0.24242 -0.10799 1.2556
-0.29943 -0.41734 1.6618
-0.32078 -0.42774 1.6726
-0.32598 -0.42769 1.6675
-0.33438 -0.42972 1.6656
-0.34025 -0.43009 1.6612
-0.34959 -0.43275 1.6604
-0.35579 -0.43333 1.6564
-0.36108 -0.43327 1.6515
-0.36578 -0.4328 1.6459
-0.36035 -0.42539 1.6293
-0.35876 -0.4205 1.6166
-0.35095 -0.41123 1.5968
-0.3675 -0.30533 1.2993
0.29375 -0.18874 1.6464
0.28838 -0.18865 1.6377
0.30347 -0.11229 1.3801
0.29869 -0.11093 1.3697
0.30021 -0.10577 1.3542
0.29315 -0.10568 1.3455
0.28954 -0.10347 1.3339
0.27887 -0.10549 1.3281
0.27513 -0.10329 1.3166
0.272 -0.10066 1.3045
0.2674 -0.098879 1.2936
0.25998 -0.098787 1.2851
0.25252 -0.098695 1.2766
0.23619 -0.1041 1.2759
0.22867 -0.10401 1.2676
0.2191 -0.10519 1.2611
0.21149 -0.1051 1.2528
-0.31413 -0.41513 1.6655
-0.32065 -0.41592 1.6616
-0.3329 -0.42052 1.6636
-0.34383 -0.42428 1.6643
-0.34909 -0.42423 1.6593
-0.35188 -0.42248 1.6517
-0.35721 -0.42242 1.6467
-0.35822 -0.41938 1.6371
-0.36421 -0.41972 1.6328
-0.36478 -0.41628 1.6225
-0.36109 -0.28941 1.2878
0.29198 -0.17858 1.6482
0.28661 -0.1785 1.6395
0.31104 -0.11191 1.4303
0.30404 -0.11203 1.4217
0.31066 -0.10404 1.4028
0.2963 -0.10428 1.3858
0.29011 -0.10376 1.3765
0.28387 -0.10324 1.3673
0.27686 -0.10315 1.3586
0.2726 -0.10135 1.3477
0.2627 -0.10297 1.3414
0.25831 -0.10117 1.3306
0.25592 -0.098086 1.318
0.24863 -0.097995 1.3095
0.24129 -0.097904 1.301
0.2339 -0.097814 1.2926
0.22038 -0.10157 1.2897
0.21292 -0.10148 1.2814
0.20541 -0.10139 1.2731
0.19986 -0.10002 1.2631
0.19225 -0.099933 1.2549
0.17228 -0.10784 1.2584
0.16321 -0.10869 1.2518
-0.32495 -0.41049 1.6654
-0.33021 -0.41043 1.6603
-0.3355 -0.41037 1.6552
-0.34426 -0.41268 1.6537
-0.35328 -0.41517 1.6526
-0.35429 -0.41211 1.643
-0.35198 -0.40668 1.6297
-0.35492 -0.27986 1.2925
-0.36283 -0.28021 1.2883
0.29171 -0.16446 1.637
0.30522 -0.11114 1.4621
0.31039 -0.10414 1.4447
0.30381 -0.10405 1.4359
0.29142 -0.10741 1.4314
0.27903 -0.11078 1.4271
0.27132 -0.10714 1.4054
0.26452 -0.10705 1.3968
0.25625 -0.10782 1.3893
0.24936 -0.10773 1.3808
0.24241 -0.10764 1.3723
0.24793 -0.099776 1.3536
0.24083 -0.099686 1.3451
0.23367 -0.099596 1.3367
0.22647 -0.099507 1.3283
0.21104 -0.1046 1.327
0.20379 -0.10452 1.3188
0.19918 -0.1027 1.3082
0.18779 -0.1052 1.3036
0.1781 -0.10661 1.2976
0.16834 -0.10803 1.2917
0.16088 -0.10794 1.2836
0.14684 -0.11216 1.2818
0.14063 -0.11121 1.2727
0.13306 -0.11112 1.2649
-0.33751 -0.41072 1.6776
-0.34271 -0.41066 1.6725
-0.35171 -0.41321 1.6714
-0.35568 -0.41227 1.6651
-0.35843 -0.41045 1.6574
-0.36252 -0.40953 1.6511
-0.36788 -0.40948 1.6462
-0.36098 -0.27433 1.2994
-0.36839 -0.27427 1.2945
0.28829 -0.15514 1.6397
0.28284 -0.15505 1.631
0.28419 -0.15104 1.618
0.33169 -0.12044 1.5753
0.30669 -0.10982 1.5014
0.30374 -0.10776 1.4902
0.29778 -0.10745 1.4811
0.29141 -0.10736 1.4724
0.2857 -0.10683 1.4631
0.27922 -0.10674 1.4544
0.27916 -0.10272 1.4408
0.26968 -0.10438 1.4343
0.26303 -0.10429 1.4257
0.26201 -0.1007 1.4127
0.25241 -0.10236 1.4064
0.24559 -0.10227 1.3979
0.23873 -0.10218 1.3894
0.23182 -0.10209 1.381
0.22694 -0.10069 1.3708
0.22026 -0.10038 1.3622
0.21285 -0.10051 1.3541
0.20641 -0.099987 1.3453
0.19924 -0.099899 1.337
0.19473 -0.098062 1.3265
0.17908 -0.10341 1.3257
0.17079 -0.10398 1.3185
0.15618 -0.10868 1.3171
0.14951 -0.10815 1.3085
0.14411 -0.10676 1.2988
0.14125 -0.10361 1.2866
0.12918 -0.10659 1.2831
0.11129 -0.1135 1.2853
-0.34198 -0.40188 1.6713
-0.34876 -0.40289 1.6678
-0.35434 -0.40305 1.6631
-0.359 -0.40254 1.6574
-0.36188 -0.40074 1.6498
-0.3636 -0.39805 1.6409
-0.35903 -0.26188 1.2945
0.28869 -0.14681 1.6522
0.2833 -0.14672 1.6435
0.28205 -0.14421 1.6321
0.28755 -0.13773 1.6165
0.31599 -0.11782 1.586
0.3185 -0.11288 1.5717
0.31264 -0.11279 1.5628
0.31196 -0.10961 1.5504
0.30556 -0.10976 1.5418
0.30657 -0.10549 1.5281
0.30045 -0.10539 1.5193
0.29428 -0.1053 1.5105
0.28366 -0.10786 1.5048
0.28685 -0.10206 1.4893
0.28269 -0.10064 1.479
0.27628 -0.10055 1.4703
0.26982 -0.10046 1.4616
0.26188 -0.10125 1.454
0.25533 -0.10116 1.4454
0.24872 -0.10107 1.4369
0.24207 -0.10098 1.4283
0.23149 -0.10332 1.4229
0.2216 -0.10522 1.417
0.22112 -0.10116 1.4036
0.21705 -0.099304 1.393
0.21014 -0.099215 1.3846
0.19754 -0.10275 1.3811
0.19039 -0.10277 1.373
0.18337 -0.10268 1.3648
0.1763 -0.10259 1.3567
0.16513 -0.10516 1.3522
0.15265 -0.10858 1.3489
0.14916 -0.10607 1.3376
0.1479 -0.102 1.3242
0.14059 -0.10192 1.3163
0.13323 -0.10183 1.3084
0.12322 -0.10351 1.3031
0.10994 -0.10741 1.3008
0.10249 -0.10732 1.2931
-0.33906 -0.39149 1.6677
-0.34713 -0.3934 1.6655
-0.35615 -0.396 1.6643
-0.36146 -0.39595 1.6593
-0.36679 -0.39589 1.6544
-0.37216 -0.39584 1.6494
-0.36166 -0.25335 1.2963
0.28591 -0.1339 1.6426
0.28995 -0.12824 1.6279
0.29766 -0.12036 1.6107
0.29805 -0.11671 1.598
0.30811 -0.10727 1.579
0.30227 -0.10718 1.5701
0.28855 -0.11176 1.5665
0.27484 -0.11635 1.5629
0.26891 -0.11626 1.5542
0.26514 -0.11483 1.544
0.25983 -0.1143 1.5349
0.25374 -0.11421 1.5263
0.25484 -0.10968 1.5125
0.24897 -0.10937 1.5037
0.24414 -0.10839 1.4941
0.24427 -0.10429 1.4808
0.23661 -0.10498 1.4732
0.22998 -0.105 1.4649
0.22382 -0.10469 1.4562
0.22468 -0.099922 1.442
0.21804 -0.099834 1.4336
0.20751 -0.1022 1.4283
0.20079 -0.10211 1.42
0.19125 -0.10381 1.414
0.18824 -0.10127 1.4027
0.17557 -0.10495 1.3993
0.168 -0.10531 1.3918
0.16106 -0.10522 1.3837
0.15408 -0.10514 1.3757
0.15378 -0.10059 1.3618
0.14667 -0.1005 1.3539
0.13752 -0.10176 1.3477
0.12768 -0.10346 1.3422
0.12046 -0.10337 1.3344
0.11319 -0.10329 1.3266
0.10587 -0.1032 1.3189
0.090737 -0.10848 1.3186
0.081443 -0.10974 1.3128
-0.33871 -0.38282 1.6668
-0.34588 -0.3841 1.6636
-0.35306 -0.38539 1.6605
-0.36209 -0.38802 1.6594
-0.36745 -0.38797 1.6544
-0.37283 -0.38791 1.6495
-0.36134 -0.24214 1.2936
0.29607 -0.11652 1.637
0.29056 -0.11643 1.6282
0.28802 -0.11454 1.6174
0.28766 -0.1113 1.6053
0.28197 -0.11121 1.5965
0.28145 -0.10797 1.5843
0.2786 -0.10608 1.5736
0.27569 -0.10419 1.5628
0.27565 -0.10049 1.5501
0.26374 -0.10401 1.5454
0.25769 -0.10392 1.5368
0.25086 -0.10428 1.5287
0.24472 -0.10419 1.5201
0.23852 -0.1041 1.5116
0.23227 -0.10401 1.503
0.22095 -0.10708 1.4983
0.21463 -0.10699 1.4899
0.20825 -0.1069 1.4815
0.20183 -0.10681 1.4732
0.19535 -0.10673 1.4649
0.18673 -0.10799 1.4583
0.18017 -0.1079 1.4501
0.17356 -0.10782 1.442
0.17451 -0.10277 1.4276
0.16845 -0.10223 1.419
0.16406 -0.10057 1.4089
0.15959 -0.098907 1.3988
0.15268 -0.098821 1.3907
0.14572 -0.098735 1.3827
0.13871 -0.098649 1.3748
0.12499 -0.10308 1.3728
0.11792 -0.10299 1.365
0.1128 -0.10155 1.3554
0.10563 -0.10147 1.3476
0.09842 -0.10139 1.3399
0.089539 -0.10243 1.3338
0.079985 -0.10393 1.3283
-0.3481 -0.38115 1.6758
-0.35337 -0.38109 1.6708
-0.35867 -0.38104 1.6657
-0.36155 -0.37918 1.6581
-0.36692 -0.37913 1.6531
-0.37232 -0.37907 1.6482
-0.34805 -0.22596 1.288
-0.35909 -0.22907 1.2881
0.28921 -0.10572 1.6297
0.28365 -0.10563 1.6208
0.27803 -0.10554 1.612
0.27011 -0.10682 1.6047
0.2629 -0.10764 1.597
0.25566 -0.10846 1.5893
0.25133 -0.10746 1.5797
0.2462 -0.10691 1.5706
0.24469 -0.1041 1.559
0.2387 -0.10401 1.5504
0.22939 -0.10597 1.5442
0.22006 -0.10792 1.538
0.21395 -0.10784 1.5296
0.21067 -0.10593 1.5191
0.20445 -0.10584 1.5108
0.19533 -0.10758 1.5046
0.18619 -0.10931 1.4985
0.17703 -0.11104 1.4924
0.16924 -0.11187 1.4854
0.16982 -0.10723 1.4717
0.1661 -0.10532 1.4614
0.16439 -0.10205 1.4494
0.16258 -0.098774 1.4373
0.15657 -0.098233 1.4287
0.14947 -0.098375 1.4209
0.14437 -0.097151 1.4115
0.13752 -0.097066 1.4035
0.13196 -0.096069 1.3944
0.12501 -0.095984 1.3865
0.11434 -0.098407 1.3819
0.10235 -0.10174 1.3786
0.093329 -0.10303 1.3727
0.086247 -0.10294 1.365
0.080422 -0.10195 1.3562
0.073241 -0.10187 1.3486
0.066016 -0.10179 1.341
-0.32475 -0.35958 1.6621
-0.33757 -0.365 1.6645
-0.34416 -0.36585 1.6606
-0.35906 -0.37287 1.6655
-0.36532 -0.3735 1.6615
-0.37068 -0.37345 1.6565
-0.36222 -0.36289 1.6365
-0.35284 -0.21918 1.2929
-0.36286 -0.22141 1.2915
0.27574 -0.10236 1.6387
0.2657 -0.10502 1.6328
0.25939 -0.10539 1.6245
0.25378 -0.1053 1.6159
0.24885 -0.10476 1.6067
0.24239 -0.10513 1.5986
0.23589 -0.1055 1.5905
0.22787 -0.10679 1.5835
0.22202 -0.1067 1.575
0.21684 -0.10615 1.566
0.2116 -0.10561 1.5571
0.20631 -0.10506 1.5482
0.20025 -0.10497 1.5398
0.197 -0.10305 1.5294
0.19082 -0.10296 1.5211
0.1846 -0.10287 1.5128
0.17408 -0.10554 1.5078
0.16708 -0.10592 1.5002
0.16073 -0.10583 1.4921
0.15608 -0.1046 1.4826
0.15136 -0.10336 1.4732
0.14485 -0.10328 1.4651
0.13761 -0.10365 1.4577
0.13101 -0.10357 1.4497
0.12606 -0.10233 1.4404
0.1197 -0.10202 1.4322
0.11632 -0.099635 1.4215
0.11286 -0.097249 1.4108
0.10865 -0.095323 1.4006
0.10171 -0.09524 1.3928
0.092086 -0.096999 1.3875
0.078508 -0.10152 1.3858
0.071484 -0.10144 1.3782
0.064415 -0.10136 1.3706
0.058592 -0.10036 1.3619
0.051425 -0.10027 1.3544
-0.34823 -0.36434 1.6748
-0.35354 -0.36428 1.6697
-0.35887 -0.36423 1.6647
-0.35876 -0.36002 1.6538
-0.36419 -0.35997 1.6488
-0.36965 -0.35991 1.6438
-0.065241 -0.10227 1.252
-0.073054 -0.10219 1.2453
-0.096475 -0.10822 1.241
-0.10578 -0.1093 1.2361
-0.3467 -0.20229 1.2816
-0.3664 -0.21353 1.2945
0.27301 -0.095982 1.6532
0.26003 -0.10053 1.6491
0.2493 -0.10369 1.6437
0.24378 -0.1036 1.6351
0.23375 -0.10629 1.6294
0.2274 -0.10667 1.6213
0.2225 -0.10612 1.6123
0.21974 -0.10417 1.6019
0.21397 -0.10409 1.5934
0.20816 -0.104 1.585
0.20302 -0.10345 1.5761
0.19421 -0.10522 1.5697
0.19258 -0.10235 1.5583
0.18656 -0.10226 1.55
0.1762 -0.10496 1.5449
0.1701 -0.10487 1.5367
0.16218 -0.10595 1.5299
0.15776 -0.1047 1.5204
0.15361 -0.10322 1.5107
0.14941 -0.10175 1.501
0.14096 -0.10305 1.4946
0.13456 -0.10297 1.4866
0.12674 -0.10382 1.4797
0.12025 -0.10373 1.4718
0.11508 -0.10272 1.4628
0.11664 -0.097057 1.4482
0.12077 -0.089535 1.4312
0.11063 -0.091775 1.4262
0.096475 -0.096807 1.4247
0.095648 -0.092538 1.4118
0.088757 -0.092456 1.404
0.073923 -0.097955 1.4035
0.066985 -0.097873 1.3959
0.060002 -0.097791 1.3883
0.052973 -0.09771 1.3808
0.047831 -0.096233 1.3715
0.040702 -0.096153 1.3641
-0.33127 -0.34711 1.6675
-0.33972 -0.34938 1.6655
-0.34878 -0.35212 1.6642
-0.36057 -0.35695 1.6658
-0.36564 -0.35667 1.6604
-0.37105 -0.35661 1.6554
-0.37289 -0.35376 1.6466
-0.091678 -0.11121 1.2809
-0.089203 -0.10298 1.2626
-0.10298 -0.10778 1.263
-0.1079 -0.10537 1.2531
-0.12083 -0.1095 1.2527
-0.12979 -0.11036 1.2476
-0.35354 -0.19735 1.2894
-0.36063 -0.1968 1.2836
0.29287 -0.075635 1.6541
0.28137 -0.079291 1.6489
0.24321 -0.099578 1.6602
0.22767 -0.10581 1.658
0.22223 -0.10573 1.6494
0.22193 -0.10236 1.6376
0.21636 -0.10227 1.6291
0.21074 -0.10218 1.6206
0.20508 -0.1021 1.6122
0.20374 -0.099198 1.6008
0.19796 -0.099111 1.5924
0.19212 -0.099024 1.584
0.18407 -0.10034 1.5772
0.17814 -0.10026 1.569
0.1736 -0.099234 1.5597
0.16757 -0.099149 1.5515
0.16149 -0.099063 1.5433
0.15325 -0.10039 1.5368
0.14708 -0.1003 1.5287
0.14086 -0.10022 1.5206
0.13321 -0.10107 1.5137
0.12517 -0.10216 1.5071
0.1171 -0.10325 1.5005
0.11416 -0.10082 1.4899
0.11523 -0.095571 1.4759
0.1087 -0.095488 1.468
0.1045 -0.093762 1.4582
0.10022 -0.092035 1.4484
0.10023 -0.087256 1.4349
0.088791 -0.090461 1.4312
0.080008 -0.091787 1.4252
0.071859 -0.092645 1.4187
0.059085 -0.096792 1.4164
0.052204 -0.09671 1.4089
0.045279 -0.096629 1.4014
0.041537 -0.094199 1.391
0.034504 -0.094119 1.3836
0.016576 -0.10203 1.3865
0.0082487 -0.10289 1.3805
-0.33766 -0.34327 1.6735
-0.34362 -0.34368 1.6689
-0.35267 -0.34645 1.6676
-0.35865 -0.34686 1.6631
-0.36406 -0.34681 1.6581
-0.36949 -0.34676 1.653
-0.36985 -0.34268 1.6425
-0.10754 -0.11207 1.2978
-0.11455 -0.11153 1.2906
-0.11186 -0.10298 1.272
-0.11561 -0.099617 1.2608
-0.12342 -0.099545 1.2543
-0.13126 -0.099472 1.2479
-0.14081 -0.10081 1.2435
-0.15037 -0.10215 1.2392
-0.18202 -0.11562 1.2468
-0.35792 -0.19014 1.2936
0.29402 -0.063254 1.6542
0.28515 -0.065292 1.6473
0.25464 -0.080978 1.6538
0.21708 -0.097692 1.6533
0.20863 -0.099498 1.6467
0.19868 -0.10225 1.6412
0.19018 -0.10406 1.6347
0.18458 -0.10397 1.6264
0.17893 -0.10388 1.6181
0.17468 -0.10285 1.6088
0.16893 -0.10277 1.6006
0.16204 -0.10339 1.5931
0.15512 -0.10402 1.5857
0.14923 -0.10393 1.5776
0.14613 -0.10195 1.5674
0.14579 -0.098079 1.5552
0.13796 -0.099179 1.5484
0.13009 -0.10028 1.5417
0.12603 -0.098774 1.5321
0.11774 -0.10011 1.5258
0.11252 -0.099318 1.5171
0.10725 -0.098524 1.5084
0.098162 -0.10034 1.5028
0.094503 -0.098358 1.4928
0.091449 -0.095905 1.4822
0.08494 -0.095823 1.4745
0.078384 -0.095741 1.4668
0.071116 -0.096134 1.4597
0.064473 -0.096052 1.452
0.056463 -0.096919 1.4456
0.049735 -0.096839 1.4381
0.048851 -0.09249 1.4253
0.042004 -0.092409 1.4178
0.035112 -0.092328 1.4104
0.028175 -0.092248 1.403
0.016096 -0.095949 1.4004
0.0052928 -0.09871 1.3967
-0.32986 -0.32858 1.665
-0.35062 -0.3404 1.6755
-0.35719 -0.34129 1.6716
-0.36256 -0.34124 1.6665
-0.36521 -0.33902 1.6586
-0.36736 -0.33635 1.65
-0.11997 -0.10407 1.2955
-0.12301 -0.1002 1.2837
-0.12844 -0.098223 1.2745
-0.1328 -0.0953 1.2641
-0.14061 -0.095227 1.2577
-0.14679 -0.093728 1.2493
-0.17404 -0.10352 1.2511
-0.18247 -0.10393 1.2456
-0.19146 -0.10481 1.2409
-0.36137 -0.18205 1.2964
0.32419 -0.046435 1.6862
0.31394 -0.049445 1.6799
0.30064 -0.054365 1.6755
0.29526 -0.054274 1.6664
0.28908 -0.05466 1.6579
0.2836 -0.054569 1.649
0.26659 -0.061819 1.6472
0.17735 -0.10482 1.6557
0.17112 -0.10521 1.6479
0.16267 -0.10704 1.6416
0.15709 -0.10695 1.6334
0.15364 -0.10544 1.6237
0.14796 -0.10535 1.6156
0.14941 -0.10049 1.6024
0.1436 -0.1004 1.5943
0.13774 -0.10032 1.5862
0.13113 -0.10071 1.5787
0.12236 -0.10254 1.5728
0.11707 -0.10198 1.5643
0.11174 -0.10142 1.5558
0.10565 -0.10133 1.5479
0.10021 -0.10077 1.5396
0.1023 -0.094948 1.5252
0.094654 -0.095823 1.5185
0.088344 -0.09574 1.5107
0.081987 -0.095658 1.5029
0.075584 -0.095576 1.4952
0.07149 -0.09382 1.4856
0.067995 -0.091584 1.4754
0.060095 -0.09246 1.4689
0.052163 -0.093337 1.4625
0.045518 -0.093256 1.4549
0.03686 -0.094613 1.4492
0.028178 -0.095971 1.4435
0.018177 -0.098286 1.4391
0.012074 -0.097701 1.4312
0.0065258 -0.096664 1.4227
-0.00055826 -0.096737 1.4156
-0.019303 -0.10559 1.4197
-0.029987 -0.10839 1.4162
-0.3437 -0.33053 1.6784
-0.34905 -0.33048 1.6732
-0.35442 -0.33042 1.6681
-0.36102 -0.33131 1.6642
-0.3676 -0.33218 1.6604
-0.37305 -0.33212 1.6553
-0.12885 -0.099544 1.3045
-0.13416 -0.097552 1.2953
-0.14095 -0.096762 1.2879
-0.14555 -0.094052 1.2779
-0.1594 -0.099235 1.2789
-0.16631 -0.098443 1.2717
-0.18761 -0.10332 1.2664
-0.1938 -0.10181 1.2583
-0.20166 -0.10174 1.2522
-0.20956 -0.10167 1.2462
-0.24954 -0.11632 1.2503
-0.33575 -0.16064 1.2892
-0.34886 -0.16586 1.292
-0.36387 -0.17301 1.2977
0.33244 -0.029386 1.6824
0.32254 -0.032184 1.6758
0.31187 -0.035464 1.6697
0.30644 -0.035372 1.6606
0.30096 -0.03528 1.6515
0.29991 -0.032294 1.6398
0.30995 -0.022073 1.621
0.16052 -0.10103 1.6554
0.15247 -0.10264 1.6489
0.1462 -0.10304 1.6412
0.1406 -0.10295 1.6331
0.13496 -0.10287 1.625
0.12927 -0.10278 1.617
0.1271 -0.10029 1.6064
0.1213 -0.1002 1.5984
0.11545 -0.10012 1.5904
0.11096 -0.099071 1.5814
0.10221 -0.10092 1.5756
0.099706 -0.098422 1.5651
0.093657 -0.09834 1.5573
0.087561 -0.098258 1.5495
0.080731 -0.098659 1.5423
0.07386 -0.099061 1.5351
0.071036 -0.096564 1.5246
0.062034 -0.098415 1.5192
0.059082 -0.095918 1.5088
0.052695 -0.095838 1.5012
0.042924 -0.098174 1.4965
0.039786 -0.095677 1.4861
0.029959 -0.098014 1.4815
0.026696 -0.095517 1.4712
0.024007 -0.092537 1.4603
0.013138 -0.095575 1.4567
0.0083802 -0.094045 1.4476
-0.0038037 -0.098051 1.4453
-0.013128 -0.099908 1.4405
-0.025331 -0.10394 1.4385
-0.039411 -0.10943 1.4383
-0.33786 -0.31718 1.6719
-0.34387 -0.31761 1.6673
-0.35138 -0.31922 1.6642
-0.35973 -0.3215 1.6622
-0.36557 -0.32175 1.6575
-0.36272 -0.31491 1.6434
-0.14115 -0.1044 1.3324
-0.14859 -0.10433 1.326
-0.15607 -0.10426 1.3197
-0.15768 -0.099103 1.3063
-0.16581 -0.099493 1.3007
-0.17813 -0.10352 1.3002
-0.18245 -0.10054 1.2899
-0.19289 -0.10289 1.2872
-0.2006 -0.10282 1.2811
-0.20997 -0.10421 1.2771
-0.21774 -0.10414 1.2712
-0.22555 -0.10408 1.2652
-0.23231 -0.10301 1.2579
-0.24487 -0.10729 1.2584
-0.25068 -0.10528 1.2498
-0.27015 -0.10854 1.2434
-0.363 -0.16058 1.2941
0.35196 -0.01192 1.697
0.33982 -0.016205 1.6915
0.32161 -0.024383 1.6895
0.31629 -0.024288 1.6803
0.31016 -0.024681 1.6716
0.30322 -0.025562 1.6634
0.29774 -0.025469 1.6543
0.29221 -0.025377 1.6452
0.29851 -0.017494 1.6289
0.13498 -0.09945 1.6493
0.12438 -0.10278 1.6447
0.12341 -0.099552 1.6334
0.11776 -0.099469 1.6254
0.11206 -0.099385 1.6174
0.1063 -0.099303 1.6095
0.10544 -0.095808 1.598
0.099567 -0.095726 1.5901
0.092952 -0.096131 1.5828
0.083516 -0.098486 1.5776
0.077524 -0.098405 1.5698
0.071485 -0.098323 1.5621
0.066772 -0.097267 1.5533
0.060634 -0.097186 1.5456
0.051735 -0.099057 1.5402
0.045518 -0.098976 1.5326
0.039257 -0.098896 1.5251
0.039305 -0.094182 1.5123
0.037247 -0.090931 1.5011
0.020898 -0.098145 1.5021
0.017418 -0.095869 1.4922
0.012879 -0.094326 1.4831
0.008763 -0.092418 1.4736
-0.00057554 -0.094388 1.4687
-0.016248 -0.10115 1.4697
-0.01904 -0.098138 1.459
-0.02957 -0.10099 1.4554
-0.037564 -0.10189 1.4495
-0.045587 -0.10279 1.4437
-0.33574 -0.30662 1.6691
-0.34269 -0.30779 1.6654
-0.3472 -0.30697 1.6592
-0.3548 -0.30863 1.6562
-0.35941 -0.30784 1.6502
-0.36081 -0.30436 1.6406
-0.15744 -0.10011 1.3349
-0.15924 -0.095144 1.322
-0.1718 -0.099461 1.3217
-0.18319 -0.10278 1.3201
-0.19073 -0.10271 1.3139
-0.1983 -0.10264 1.3078
-0.20645 -0.10306 1.3024
-0.2141 -0.103 1.2964
-0.2191 -0.10048 1.287
-0.22523 -0.098947 1.279
-0.23483 -0.10057 1.2755
-0.24759 -0.10512 1.2762
-0.25357 -0.10334 1.268
-0.25962 -0.10157 1.2599
-0.26752 -0.1015 1.2542
-0.27545 -0.10144 1.2485
-0.29096 -0.10872 1.2536
-0.31948 -0.12886 1.2776
-0.3439 -0.14527 1.2964
-0.35697 -0.1506 1.2992
-0.36463 -0.15054 1.294
-0.37232 -0.15048 1.289
0.35016 -0.001014 1.699
0.33196 -0.0092683 1.6969
0.32288 -0.011631 1.6897
0.31453 -0.0135 1.6822
0.31215 -0.011441 1.6713
0.3067 -0.011348 1.6621
0.30568 -0.0083072 1.6503
0.3001 -0.0082142 1.6412
0.29892 -0.0051718 1.6294
0.11537 -0.09787 1.6513
0.10261 -0.10273 1.6483
