# .PCD v.5 - Point Cloud Data file format
#
FIELDS x y z
SIZE 4 4 4
TYPE F F F
COUNT 1 1 1
POINTS 1928
DATA ascii
-0.35095 -0.51119 1.3744
-0.3435 -0.50788 1.3674
-0.34391 -0.50783 1.3609
-0.34621 -0.50856 1.3544
-0.34391 -0.50735 1.3477
-0.3366 -0.50403 1.3405
-0.32746 -0.49992 1.3331
-0.32715 -0.49949 1.3264
-0.3278 -0.49945 1.3197
-0.32941 -0.49979 1.3132
-0.33473 -0.50167 1.307
-0.33549 -0.50163 1.3004
-0.33537 -0.5012 1.2937
-0.33621 -0.50116 1.2871
-0.30983 -0.48826 1.2563
-0.29538 -0.48167 1.2472
-0.29326 -0.47918 1.2258
-0.2627 -0.46563 1.2133
-0.24948 -0.45942 1.2036
-0.34705 -0.49836 1.6245
-0.38196 -0.51366 1.6122
-0.39688 -0.52077 1.597
-0.40439 -0.52494 1.5768
-0.4036 -0.5249 1.5706
-0.25559 -0.46362 1.5463
-0.3749 -0.51508 1.4969
-0.37274 -0.51426 1.4906
-0.3614 -0.50955 1.4847
-0.35931 -0.50873 1.4783
-0.35909 -0.50869 1.4718
-0.36443 -0.51098 1.4652
-0.36982 -0.51327 1.4586
-0.3826 -0.51868 1.452
-0.3853 -0.51981 1.4456
-0.38527 -0.51977 1.4393
-0.38619 -0.52012 1.433
-0.38623 -0.52007 1.4266
-0.38355 -0.51886 1.4203
-0.3809 -0.51765 1.4139
-0.37737 -0.51606 1.4074
-0.36559 -0.51095 1.4007
-0.3474 -0.50312 1.3937
-0.34767 -0.50307 1.3871
-0.34613 -0.50225 1.3805
-0.34004 -0.49948 1.3736
-0.33578 -0.49747 1.3667
-0.3362 -0.49743 1.3601
-0.33666 -0.49738 1.3535
-0.33305 -0.49533 1.34
-0.3261 -0.49039 1.299
-0.32417 -0.48917 1.292
-0.32502 -0.48913 1.2853
-0.3314 -0.491 1.2726
-0.33236 -0.49095 1.266
-0.32238 -0.4862 1.2577
-0.32343 -0.48616 1.2511
-0.32083 -0.48453 1.2438
-0.31469 -0.48137 1.2359
-0.31223 -0.47976 1.2285
-0.31345 -0.47971 1.2218
-0.29116 -0.46952 1.2107
-0.28525 -0.46635 1.2025
-0.35089 -0.49278 1.6242
-0.36754 -0.50041 1.6148
-0.2699 -0.46181 1.5522
-0.26926 -0.46177 1.5452
-0.36207 -0.5025 1.5042
-0.36216 -0.50265 1.4977
-0.36229 -0.50281 1.4912
-0.362 -0.50276 1.4847
-0.3544 -0.49957 1.4785
-0.35418 -0.49953 1.472
-0.36134 -0.50264 1.4653
-0.3612 -0.50259 1.4588
-0.3758 -0.50886 1.4521
-0.37573 -0.50882 1.4457
-0.3757 -0.50877 1.4393
-0.39316 -0.51622 1.4329
-0.39321 -0.51618 1.4266
-0.39328 -0.51614 1.4203
-0.37961 -0.51019 1.4138
-0.37931 -0.50995 1.4074
-0.37628 -0.50853 1.4009
-0.36457 -0.50336 1.3941
-0.34831 -0.49622 1.387
-0.28495 -0.46252 1.2517
-0.29744 -0.46399 1.2042
-0.28754 -0.459 1.1951
-0.32719 -0.47511 1.6285
-0.35011 -0.48562 1.618
-0.29496 -0.46456 1.5639
-0.33439 -0.48205 1.5529
-0.34835 -0.48838 1.5448
-0.35232 -0.49033 1.5378
-0.36038 -0.49423 1.524
-0.3599 -0.49419 1.5175
-0.35579 -0.49255 1.5112
-0.34898 -0.48972 1.5051
-0.34827 -0.48963 1.492
-0.34797 -0.48959 1.4854
-0.34588 -0.48875 1.4789
-0.34364 -0.48787 1.4658
-0.3765 -0.50218 1.4584
-0.38281 -0.50493 1.4519
-0.38458 -0.50569 1.4455
-0.38455 -0.50565 1.4392
-0.38455 -0.50561 1.4328
-0.3846 -0.50556 1.4265
-0.38834 -0.50712 1.4201
-0.38846 -0.50708 1.4138
-0.38632 -0.50604 1.4074
-0.36217 -0.4954 1.4003
-0.34957 -0.48977 1.3934
-0.3235 -0.46603 1.6295
-0.32286 -0.46619 1.6227
-0.32492 -0.47028 1.5608
-0.35427 -0.48354 1.551
-0.35363 -0.4835 1.5445
-0.36524 -0.49021 1.4587
-0.37337 -0.4938 1.4521
-0.38245 -0.49779 1.4455
-0.38242 -0.49775 1.4391
-0.38243 -0.49771 1.4327
-0.38247 -0.49767 1.4264
-0.38163 -0.49722 1.42
-0.3817 -0.49716 1.4136
-0.37819 -0.4955 1.4071
-0.32644 -0.46032 1.6225
-0.32358 -0.45946 1.6161
-0.31264 -0.45494 1.6108
-0.30849 -0.45346 1.6044
-0.2899 -0.44547 1.6001
-0.28445 -0.44339 1.5937
-0.26641 -0.43562 1.5889
-0.25564 -0.43111 1.583
-0.25527 -0.43127 1.5758
-0.28218 -0.44366 1.5657
-0.30053 -0.45218 1.5568
-0.30894 -0.45622 1.549
-0.36138 -0.48137 1.4588
-0.37131 -0.48582 1.4521
-0.38311 -0.49109 1.4455
-0.38308 -0.49105 1.4391
-0.38309 -0.49101 1.4327
-0.38673 -0.49258 1.4263
-0.38453 -0.49151 1.4199
-0.38322 -0.49083 1.4135
-0.37699 -0.48793 1.4069
-0.14936 -0.38315 1.3161
-0.14282 -0.37983 1.3077
-0.14268 -0.37937 1.2998
-0.33204 -0.45494 1.6289
-0.33094 -0.45489 1.6222
-0.32989 -0.45485 1.6154
-0.32798 -0.45439 1.6088
-0.31663 -0.4496 1.6036
-0.31073 -0.44729 1.5975
-0.28182 -0.43446 1.5944
-0.27822 -0.43317 1.5877
-0.24442 -0.41809 1.5847
-0.24074 -0.41675 1.5778
-0.26503 -0.42813 1.5678
-0.26611 -0.42891 1.5605
-0.26633 -0.42928 1.5533
-0.31709 -0.45341 1.5142
-0.3203 -0.45502 1.5072
-0.31992 -0.45498 1.5004
-0.36031 -0.47372 1.4588
-0.37204 -0.47905 1.452
-0.38199 -0.48355 1.4454
-0.38617 -0.48542 1.439
-0.3892 -0.48675 1.4326
-0.37644 -0.4809 1.4261
-0.37652 -0.48085 1.4197
-0.37482 -0.47999 1.4132
-0.37452 -0.47974 1.4067
-0.22229 -0.40988 1.3737
-0.20995 -0.40404 1.3657
-0.16426 -0.3814 1.317
-0.15229 -0.37555 1.3082
-0.15216 -0.37509 1.3003
-0.13985 -0.36904 1.2912
-0.3285 -0.44578 1.6299
-0.3292 -0.44657 1.6228
-0.32814 -0.44653 1.6161
-0.32712 -0.44648 1.6093
-0.31849 -0.44289 1.6037
-0.30089 -0.43513 1.5992
-0.28556 -0.42841 1.5942
-0.28016 -0.42627 1.5877
-0.21075 -0.39451 1.589
-0.22376 -0.40088 1.58
-0.24752 -0.41218 1.57
-0.254 -0.41547 1.562
-0.25652 -0.41691 1.5545
-0.23849 -0.40909 1.5416
-0.025104 -0.31173 1.5172
-0.38131 -0.47617 1.4454
-0.38505 -0.47786 1.4389
-0.38533 -0.47795 1.4325
-0.38538 -0.4779 1.4261
-0.38546 -0.47786 1.4197
-0.38558 -0.47782 1.4133
-0.37348 -0.47213 1.4066
-0.28097 -0.42862 1.3692
-0.18186 -0.38104 1.3182
-0.17986 -0.37973 1.3103
-0.17701 -0.37801 1.3024
-0.16156 -0.37042 1.2931
-0.13896 -0.35948 1.2828
-0.33398 -0.4408 1.6293
-0.33377 -0.44117 1.6225
-0.33271 -0.44113 1.6157
-0.32631 -0.43855 1.6098
-0.31546 -0.43387 1.6044
-0.29565 -0.42496 1.6002
-0.27944 -0.41774 1.5953
-0.25696 -0.40756 1.591
-0.25609 -0.40752 1.5838
-0.26438 -0.41207 1.5684
-0.27536 -0.41751 1.56
-0.26795 -0.41432 1.5536
-0.2673 -0.41427 1.5465
-0.26307 -0.41254 1.5397
-0.24403 -0.40386 1.534
-0.23445 -0.39959 1.5274
-0.086948 -0.33105 1.522
-0.37435 -0.46581 1.4454
-0.38429 -0.47042 1.4389
-0.38521 -0.4708 1.4324
-0.38344 -0.46992 1.426
-0.37809 -0.46734 1.4195
-0.36734 -0.46222 1.4128
-0.36841 -0.4626 1.4063
-0.28202 -0.42134 1.369
-0.23372 -0.39694 1.3224
-0.1848 -0.3736 1.3104
-0.17745 -0.36974 1.302
-0.17512 -0.36821 1.2941
-0.17463 -0.36753 1.2863
-0.33679 -0.43457 1.6293
-0.33569 -0.43453 1.6225
-0.33463 -0.43448 1.6158
-0.33361 -0.43444 1.6091
-0.3286 -0.43248 1.6029
-0.31824 -0.42795 1.5974
-0.31106 -0.42492 1.5914
-0.303 -0.42146 1.5854
-0.30216 -0.42141 1.5785
-0.30688 -0.42431 1.5639
-0.30976 -0.42597 1.5567
-0.30909 -0.42593 1.5498
-0.30845 -0.42588 1.5429
-0.30695 -0.42541 1.5361
-0.27671 -0.4113 1.5316
-0.26897 -0.40783 1.525
-0.2761 -0.41156 1.5102
-0.29708 -0.42202 1.4741
-0.37791 -0.46031 1.4453
-0.38014 -0.46134 1.4388
-0.3797 -0.46108 1.4324
-0.38065 -0.46147 1.4259
-0.38074 -0.46143 1.4194
-0.37996 -0.46096 1.4129
-0.37289 -0.45749 1.4063
-0.35864 -0.45061 1.3993
-0.34533 -0.44415 1.3922
-0.30317 -0.424 1.3838
-0.28816 -0.41668 1.3761
-0.28312 -0.41406 1.3688
-0.27723 -0.41102 1.3614
-0.27409 -0.40927 1.3541
-0.2746 -0.40922 1.347
-0.27695 -0.41003 1.3401
-0.26827 -0.40523 1.325
-0.23656 -0.38977 1.3149
-0.19144 -0.36788 1.303
-0.1918 -0.36762 1.2954
-0.18901 -0.36584 1.2874
-0.33475 -0.42599 1.63
-0.33765 -0.42789 1.6226
-0.33659 -0.42784 1.6159
-0.33646 -0.42823 1.609
-0.33235 -0.42668 1.6027
-0.32738 -0.42469 1.5965
-0.32021 -0.42163 1.5905
-0.31933 -0.42158 1.5837
-0.3185 -0.42154 1.5768
-0.30887 -0.41756 1.564
-0.31802 -0.42227 1.556
-0.31735 -0.42222 1.5492
-0.31672 -0.42218 1.5423
-0.31612 -0.42213 1.5355
-0.30028 -0.41475 1.5298
-0.30178 -0.41654 1.4739
-0.30249 -0.41693 1.4669
-0.3375 -0.43374 1.4592
-0.36173 -0.44537 1.4521
-0.37068 -0.44965 1.4454
-0.37426 -0.45133 1.4388
-0.37518 -0.45172 1.4323
-0.37522 -0.45168 1.4257
-0.3708 -0.44948 1.4192
-0.36732 -0.4477 1.4125
-0.36253 -0.44528 1.4059
-0.35327 -0.4407 1.399
-0.33279 -0.43071 1.3916
-0.29165 -0.41077 1.3831
-0.27938 -0.40466 1.3755
-0.27571 -0.40267 1.3682
-0.27479 -0.40198 1.361
-0.27183 -0.39968 1.3393
-0.25806 -0.39271 1.331
-0.2578 -0.39223 1.3238
-0.24772 -0.38698 1.3155
-0.24303 -0.38432 1.3077
-0.20415 -0.36511 1.2962
-0.18189 -0.35389 1.2861
-0.1828 -0.35384 1.2785
-0.32899 -0.41602 1.6244
-0.32792 -0.41598 1.6176
-0.32688 -0.41593 1.6108
-0.32588 -0.41589 1.604
-0.32492 -0.41584 1.5971
-0.32222 -0.41493 1.5905
-0.31956 -0.41401 1.5839
-0.31515 -0.41222 1.5775
-0.31792 -0.41392 1.5702
-0.31717 -0.41387 1.5633
-0.31645 -0.41383 1.5564
-0.31577 -0.41378 1.5495
-0.32678 -0.41941 1.5416
-0.32619 -0.41937 1.5348
-0.3095 -0.41147 1.5292
-0.28695 -0.40154 1.4815
-0.28762 -0.40193 1.4744
-0.30091 -0.40844 1.467
-0.33673 -0.42587 1.4592
-0.35911 -0.43675 1.4521
-0.36036 -0.43732 1.4388
-0.35903 -0.43662 1.4322
-0.35908 -0.43658 1.4255
-0.35287 -0.43348 1.4188
-0.3521 -0.43299 1.4121
-0.34822 -0.43098 1.4054
-0.3327 -0.42329 1.3982
-0.30329 -0.40882 1.3903
-0.28652 -0.40046 1.3827
-0.268 -0.39123 1.3747
-0.25962 -0.38575 1.3381
-0.25933 -0.38527 1.3308
-0.2559 -0.38323 1.3232
-0.25525 -0.38253 1.3159
-0.24968 -0.37939 1.308
-0.21917 -0.36403 1.2974
-0.20125 -0.35479 1.2878
-0.20037 -0.35386 1.2801
-0.31895 -0.40598 1.5843
-0.31454 -0.40417 1.5778
-0.30973 -0.40214 1.5714
-0.30494 -0.40011 1.5649
-0.30422 -0.40007 1.5579
-0.32586 -0.41105 1.5488
-0.3288 -0.41277 1.5416
-0.3282 -0.41272 1.5348
-0.31155 -0.40474 1.5292
-0.31103 -0.40469 1.5223
-0.30877 -0.40376 1.5155
-0.30654 -0.40284 1.5086
-0.3039 -0.40169 1.5018
-0.29413 -0.39701 1.4953
-0.29382 -0.39696 1.4883
-0.29713 -0.39868 1.4811
-0.29689 -0.39864 1.4741
-0.29849 -0.39947 1.467
-0.30282 -0.40164 1.4599
-0.35644 -0.428 1.4387
-0.35018 -0.42487 1.4321
-0.34933 -0.42438 1.4254
-0.34315 -0.42125 1.4186
-0.34148 -0.42032 1.4118
-0.29323 -0.39641 1.4038
-0.28269 -0.39107 1.3965
-0.28026 -0.38969 1.3893
-0.27609 -0.38744 1.382
-0.26389 -0.3812 1.3743
-0.25244 -0.37412 1.3372
-0.25122 -0.37316 1.3298
-0.2487 -0.37154 1.3222
-0.24761 -0.37061 1.3147
-0.24033 -0.36658 1.3066
-0.23354 -0.36277 1.2985
-0.22414 -0.35764 1.2899
-0.20811 -0.34918 1.2805
-0.30695 -0.39294 1.572
-0.30796 -0.39378 1.5648
-0.30723 -0.39374 1.5578
-0.32703 -0.40395 1.5489
-0.35313 -0.41728 1.5395
-0.35255 -0.41723 1.5328
-0.35022 -0.4163 1.5263
-0.33455 -0.40867 1.5207
-0.29836 -0.39079 1.5163
-0.29345 -0.38851 1.5096
-0.29171 -0.3878 1.5026
-0.28969 -0.38703 1.4885
-0.28941 -0.38699 1.4815
-0.28772 -0.38627 1.439
-0.32442 -0.40452 1.4319
-0.36742 -0.42591 1.4254
-0.36751 -0.42587 1.4188
-0.24399 -0.36361 1.3878
-0.23358 -0.35821 1.38
-0.22322 -0.3528 1.3721
-0.23609 -0.35775 1.3356
-0.23873 -0.35872 1.3284
-0.2394 -0.35867 1.321
-0.24367 -0.36041 1.314
-0.24443 -0.36036 1.3066
-0.24345 -0.35942 1.2991
-0.22918 -0.35177 1.29
-0.24793 -0.35508 1.5791
-0.34716 -0.4067 1.5403
-0.34746 -0.40711 1.5334
-0.34692 -0.40707 1.5267
-0.33573 -0.40161 1.5207
-0.32902 -0.39842 1.5143
-0.30988 -0.38891 1.5086
-0.29344 -0.38075 1.5026
-0.37217 -0.4208 1.4187
-0.21222 -0.33884 1.3713
-0.20017 -0.33248 1.363
-0.20064 -0.33243 1.3554
-0.20293 -0.33328 1.3479
-0.21203 -0.33721 1.3333
-0.22953 -0.34573 1.3272
-0.23465 -0.34794 1.3202
-0.2407 -0.3506 1.3133
-0.24146 -0.35055 1.3059
-0.24226 -0.3505 1.2985
-0.23957 -0.34865 1.2907
-0.33018 -0.38977 1.5559
-0.34545 -0.39792 1.5475
-0.34482 -0.39787 1.5407
-0.34334 -0.39737 1.534
-0.3419 -0.39687 1.5272
-0.3405 -0.39637 1.5205
-0.22826 -0.33993 1.4615
-0.22814 -0.33988 1.454
-0.3723 -0.41353 1.4252
-0.3724 -0.41349 1.4186
-0.37253 -0.41345 1.4119
-0.21112 -0.32977 1.3709
-0.20799 -0.3279 1.3632
-0.20224 -0.32466 1.3552
-0.20092 -0.32367 1.3475
-0.19966 -0.32268 1.3397
-0.2016 -0.32332 1.3322
-0.2089 -0.32669 1.3251
-0.23618 -0.34033 1.3199
-0.23779 -0.34074 1.3126
-0.23855 -0.34069 1.3051
-0.23892 -0.34042 1.2977
-0.23138 -0.33603 1.2893
-0.3253 -0.37943 1.5567
-0.3414 -0.38813 1.5481
-0.34518 -0.39038 1.5408
-0.34769 -0.39195 1.5338
-0.23513 -0.33507 1.4613
-0.23501 -0.33503 1.4539
-0.38243 -0.41123 1.4186
-0.38257 -0.41118 1.412
-0.24516 -0.33915 1.3797
-0.22337 -0.32758 1.3713
-0.20163 -0.31602 1.3625
-0.20117 -0.31548 1.3548
-0.20075 -0.31494 1.3471
-0.19866 -0.31351 1.3393
-0.20414 -0.316 1.332
-0.21143 -0.31941 1.3249
-0.2298 -0.32858 1.3189
-0.2323 -0.32945 1.3116
-0.2366 -0.33124 1.3045
-0.23742 -0.3312 1.2971
-0.14769 -0.28063 1.4792
-0.24938 -0.333 1.3797
-0.23113 -0.32315 1.3714
-0.21874 -0.31636 1.3632
-0.19045 -0.30116 1.3539
-0.19098 -0.30111 1.3461
-0.19155 -0.30106 1.3384
-0.19217 -0.30101 1.3307
-0.19549 -0.30235 1.3232
-0.20325 -0.30603 1.3161
-0.23571 -0.32274 1.3115
-0.23737 -0.32316 1.3041
-0.22232 -0.31139 1.454
-0.22401 -0.31228 1.4464
-0.2387 -0.31915 1.3864
-0.24344 -0.32145 1.3792
-0.26008 -0.33007 1.3725
-0.23934 -0.31874 1.364
-0.20215 -0.29791 1.3388
-0.20013 -0.29645 1.3309
-0.19904 -0.29546 1.323
-0.19975 -0.29541 1.3153
-0.2172 -0.3043 1.3092
-0.20823 -0.2942 1.3851
-0.24023 -0.31124 1.3788
-0.29424 -0.34014 1.3739
-0.29465 -0.3401 1.3668
-0.22327 -0.30055 1.34
-0.20678 -0.29125 1.331
-0.19298 -0.28337 1.3221
-0.18932 -0.28094 1.3139
-0.22642 -0.29559 1.3931
-0.23286 -0.2989 1.3857
-0.25249 -0.30939 1.379
-0.32037 -0.34624 1.3749
-0.3234 -0.34763 1.3681
-0.23733 -0.29956 1.3406
-0.227 -0.29352 1.3322
-0.21761 -0.28796 1.3238
-0.33107 -0.34384 1.3682
-0.32627 -0.3409 1.3609
-0.34746 -0.345 1.3688
-0.34877 -0.34545 1.362
-0.29496 -0.31458 1.3441
-0.35382 -0.34065 1.3689
-0.36164 -0.34479 1.3625
-0.35296 -0.33954 1.355
-0.37577 -0.34529 1.3698
-0.37621 -0.34525 1.3631
-0.36447 -0.33818 1.3554
-0.36829 -0.33278 1.3622
0.0024974 -0.91695 1.7359
-0.032364 -0.91875 1.7444
-0.041357 -0.91907 1.74
-0.053015 -0.91954 1.737
-0.083352 -0.92089 1.7352
-0.11603 -0.92259 1.744
-0.12583 -0.92296 1.7407
-0.13214 -0.92312 1.7354
-0.15064 -0.924 1.7371
-0.15955 -0.92432 1.7336
-0.17193 -0.92484 1.7321
0.0067084 -0.90844 1.7338
-0.0068028 -0.90908 1.7314
-0.032724 -0.91049 1.7356
-0.046173 -0.91113 1.7335
-0.057842 -0.91165 1.7306
-0.067743 -0.91206 1.7269
-0.073257 -0.91218 1.7209
-0.090175 -0.91304 1.7211
-0.10705 -0.91389 1.7215
-0.12911 -0.91509 1.7251
-0.14676 -0.916 1.7263
-0.15484 -0.91629 1.7222
-0.1707 -0.91709 1.7228
-0.18221 -0.91761 1.7209
-0.20057 -0.91857 1.7232
-0.21289 -0.91915 1.7221
-0.22689 -0.91983 1.7222
-0.23577 -0.92018 1.7192
-0.24464 -0.92053 1.7163
-0.25351 -0.92088 1.7134
-0.26322 -0.92128 1.7112
-0.27041 -0.92152 1.7074
-0.27594 -0.92164 1.7026
-0.28732 -0.92216 1.7017
-0.29701 -0.92256 1.6998
-0.31082 -0.92324 1.7007
0.035144 -0.89846 1.729
0.022475 -0.89909 1.726
0.006256 -0.89996 1.7249
-0.009936 -0.90084 1.7239
-0.014599 -0.90091 1.7171
-0.043997 -0.90271 1.7234
-0.058774 -0.90349 1.7222
-0.068263 -0.9039 1.7182
-0.086941 -0.90496 1.7194
-0.090742 -0.90498 1.7125
-0.10762 -0.90591 1.713
-0.134 -0.90752 1.7191
-0.14299 -0.9079 1.7155
-0.15198 -0.90828 1.7119
-0.16356 -0.90885 1.7099
-0.17511 -0.90941 1.7081
-0.19733 -0.91074 1.7128
-0.21436 -0.9117 1.7145
-0.22752 -0.91239 1.7141
-0.23134 -0.9124 1.708
-0.24532 -0.91315 1.7083
-0.25631 -0.91368 1.7068
-0.27985 -0.91513 1.7136
-0.28785 -0.91545 1.7104
-0.29336 -0.91558 1.7057
-0.29889 -0.91572 1.701
-0.31063 -0.91631 1.7006
-0.32481 -0.91709 1.702
-0.33525 -0.91759 1.7009
-0.33915 -0.9176 1.6953
-0.34307 -0.91761 1.6898
0.041971 -0.88953 1.7258
0.035974 -0.88971 1.7193
0.0041605 -0.89183 1.726
-0.014683 -0.89297 1.7265
-0.019333 -0.89306 1.7197
-0.033718 -0.89387 1.718
-0.055996 -0.89528 1.7208
-0.083471 -0.89709 1.7266
-0.090733 -0.89737 1.7216
-0.095395 -0.89746 1.7152
-0.10096 -0.8976 1.7093
-0.12735 -0.89935 1.7154
-0.14759 -0.90062 1.7182
-0.1514 -0.90064 1.7116
-0.15782 -0.90085 1.7066
-0.16597 -0.9012 1.7026
-0.18736 -0.90257 1.7068
-0.20696 -0.90382 1.7101
-0.21336 -0.90403 1.7054
-0.22569 -0.9047 1.7045
-0.22957 -0.90472 1.6983
-0.24523 -0.90566 1.6997
-0.25667 -0.90627 1.6986
-0.26475 -0.90662 1.6953
-0.27283 -0.90696 1.6921
-0.27677 -0.90697 1.6862
-0.30427 -0.90888 1.6963
-0.31765 -0.90965 1.6971
-0.3232 -0.90979 1.6925
-0.32878 -0.90994 1.688
-0.33925 -0.91048 1.687
-0.35578 -0.91152 1.6905
-0.36013 -0.91157 1.6853
-0.36411 -0.91158 1.6799
0.05055 -0.88037 1.7216
0.040519 -0.88089 1.7171
0.012703 -0.88285 1.7218
-0.016798 -0.88495 1.7277
-0.038241 -0.8864 1.7296
-0.044636 -0.88663 1.7239
-0.06512 -0.88801 1.7257
-0.069766 -0.88809 1.7192
-0.098048 -0.89012 1.7257
-0.11054 -0.89085 1.7237
-0.12214 -0.89151 1.7213
-0.12723 -0.89163 1.7154
-0.14876 -0.89311 1.7189
-0.16204 -0.89392 1.7179
-0.17358 -0.89458 1.716
-0.17826 -0.89466 1.7101
-0.18424 -0.89485 1.7049
-0.20215 -0.89605 1.7072
-0.2145 -0.89678 1.7061
-0.22767 -0.89758 1.7057
-0.23154 -0.89759 1.6996
-0.23964 -0.89797 1.6962
-0.25444 -0.89891 1.6971
-0.26503 -0.89949 1.6955
-0.26979 -0.89958 1.6901
-0.27788 -0.89995 1.687
-0.28969 -0.90064 1.6864
-0.29572 -0.90083 1.682
-0.30218 -0.90106 1.6779
-0.3062 -0.90107 1.6722
-0.3322 -0.90301 1.682
-0.34551 -0.90385 1.6831
-0.35878 -0.90468 1.6844
-0.36277 -0.90469 1.6789
-0.36678 -0.90471 1.6735
-0.37401 -0.905 1.6704
-0.37728 -0.90494 1.6645
0.070693 -0.87012 1.7118
0.040119 -0.87244 1.7175
0.017643 -0.87408 1.7194
-0.0030003 -0.87556 1.7207
-0.038616 -0.87834 1.7299
-0.05823 -0.87974 1.7312
-0.073837 -0.8808 1.7305
-0.085908 -0.88155 1.7281
-0.091415 -0.88171 1.7221
-0.099562 -0.88211 1.7177
-0.12857 -0.88436 1.725
-0.14187 -0.88522 1.7238
-0.15084 -0.8857 1.7202
-0.1555 -0.88579 1.7141
-0.16619 -0.88642 1.7117
-0.18544 -0.88781 1.7144
-0.19098 -0.88798 1.7091
-0.19908 -0.88838 1.7053
-0.20889 -0.88893 1.7027
-0.22715 -0.89025 1.7055
-0.23776 -0.89088 1.7036
-0.24206 -0.89093 1.6978
-0.2464 -0.89098 1.692
-0.26035 -0.89191 1.6925
-0.28007 -0.89339 1.697
-0.28813 -0.89378 1.6939
-0.29207 -0.8938 1.6881
-0.29603 -0.89381 1.6823
-0.30576 -0.89436 1.6804
-0.32038 -0.89537 1.6822
-0.32437 -0.89538 1.6765
-0.33285 -0.89581 1.6741
-0.34375 -0.89648 1.6734
-0.35021 -0.89672 1.6697
-0.36067 -0.89734 1.6689
-0.3775 -0.89858 1.6731
-0.3879 -0.89921 1.6725
-0.39195 -0.89922 1.6672
-0.37475 -0.89716 1.6454
0.053042 -0.86276 1.7111
0.041198 -0.86352 1.7076
0.037329 -0.86353 1.7
0.013984 -0.86536 1.7026
-0.026915 -0.86883 1.7147
-0.059299 -0.87151 1.7228
-0.086302 -0.87371 1.7284
-0.097049 -0.87438 1.7253
-0.1226 -0.87645 1.7306
-0.12722 -0.87655 1.7244
-0.13835 -0.87726 1.7219
-0.15035 -0.87805 1.72
-0.15759 -0.87839 1.7154
-0.16828 -0.87907 1.713
-0.17554 -0.87941 1.7086
-0.19091 -0.88053 1.7091
-0.20965 -0.88198 1.7119
-0.22535 -0.88314 1.713
-0.22919 -0.88316 1.7068
-0.24148 -0.88399 1.706
-0.24997 -0.88445 1.7029
-0.26013 -0.88508 1.7009
-0.26486 -0.88518 1.6955
-0.26879 -0.88519 1.6895
-0.28516 -0.88643 1.6919
-0.28911 -0.88644 1.6861
-0.29309 -0.88646 1.6803
-0.30365 -0.88712 1.679
-0.3199 -0.88837 1.6818
-0.3239 -0.88838 1.6762
-0.32955 -0.88855 1.6717
-0.34005 -0.88922 1.6708
-0.34572 -0.8894 1.6664
-0.3634 -0.8908 1.671
-0.36826 -0.89089 1.6661
-0.38028 -0.89172 1.6667
-0.39069 -0.89239 1.6662
-0.38847 -0.89175 1.6561
0.050779 -0.85441 1.7124
0.044271 -0.85469 1.7061
0.030652 -0.85567 1.7036
0.024993 -0.85586 1.697
0.0069762 -0.85728 1.6969
-0.17555 -0.87226 1.7174
-0.18364 -0.87271 1.7135
-0.20325 -0.87434 1.7166
-0.20749 -0.8744 1.7106
-0.21643 -0.87494 1.7075
-0.22283 -0.87521 1.7029
-0.22756 -0.87531 1.6972
-0.2667 -0.87899 1.7137
-0.27221 -0.87918 1.7088
-0.27607 -0.87919 1.7029
-0.28162 -0.87938 1.6981
-0.28554 -0.87939 1.6922
-0.29402 -0.87988 1.6894
-0.31482 -0.88168 1.6952
-0.31875 -0.88169 1.6895
-0.32353 -0.88179 1.6844
-0.32752 -0.8818 1.6788
-0.33801 -0.88251 1.6778
-0.34284 -0.88261 1.6728
-0.34528 -0.88245 1.6661
-0.35816 -0.88342 1.6671
-0.36862 -0.88413 1.6664
-0.37508 -0.8844 1.6628
-0.38077 -0.88459 1.6586
-0.38489 -0.8846 1.6533
-0.38669 -0.88435 1.6461
0.05738 -0.84516 1.7092
0.053518 -0.84518 1.7016
0.044302 -0.84575 1.6967
0.040372 -0.84577 1.6891
0.017036 -0.84782 1.6918
-0.0075471 -0.85001 1.6954
-0.015422 -0.85045 1.6902
-0.025495 -0.85111 1.6863
-0.042534 -0.85251 1.6863
-0.20707 -0.86697 1.7104
-0.24909 -0.86994 1.7024
-0.26815 -0.87121 1.6977
-0.27933 -0.87161 1.6881
-0.2833 -0.87162 1.6822
-0.28731 -0.87163 1.6763
-0.29788 -0.87239 1.675
-0.31333 -0.87369 1.6773
-0.32467 -0.87453 1.6768
-0.33355 -0.8751 1.6746
-0.3392 -0.8753 1.6702
-0.34327 -0.87531 1.6646
-0.34736 -0.87532 1.659
-0.35786 -0.87607 1.6583
-0.36873 -0.87687 1.658
-0.37799 -0.87748 1.6565
-0.38213 -0.87749 1.6511
-0.391 -0.87806 1.6495
-0.40766 -0.87954 1.6541
0.061097 -0.83614 1.7075
0.05434 -0.83648 1.7013
0.043797 -0.83723 1.6971
0.035897 -0.83768 1.6916
0.017421 -0.83931 1.6917
0.00204 -0.8406 1.6904
-0.010707 -0.8416 1.6877
-0.023409 -0.8426 1.6852
-0.03523 -0.84349 1.6823
-0.15236 -0.85329 1.677
-0.19425 -0.85632 1.6673
-0.21951 -0.85835 1.6659
-0.25003 -0.86101 1.6685
-0.25411 -0.86103 1.6624
-0.25822 -0.86104 1.6564
-0.26236 -0.86105 1.6504
-0.2763 -0.86224 1.6513
-0.28453 -0.86274 1.6483
-0.31013 -0.86534 1.6578
-0.33238 -0.86754 1.6652
-0.33808 -0.86775 1.6608
-0.34699 -0.86835 1.6588
-0.36704 -0.87031 1.6652
-0.37113 -0.87032 1.6598
-0.37289 -0.87004 1.6525
-0.37705 -0.87005 1.6472
-0.38124 -0.87006 1.6418
-0.3913 -0.8708 1.6411
0.056905 -0.82755 1.7002
0.047683 -0.82819 1.6952
0.032278 -0.82955 1.6936
0.028328 -0.82956 1.6861
0.011441 -0.83109 1.6855
-0.015161 -0.83377 1.6903
-0.024796 -0.83446 1.6861
-0.034436 -0.83514 1.682
-0.10101 -0.84124 1.6828
-0.10845 -0.84166 1.678
-0.11675 -0.84219 1.6738
-0.1461 -0.84479 1.6733
-0.15607 -0.84553 1.6703
-0.1711 -0.84688 1.6707
-0.17601 -0.847 1.6647
-0.18764 -0.84794 1.6631
-0.20927 -0.85011 1.6681
-0.21834 -0.85074 1.6651
-0.22824 -0.85147 1.6628
-0.23648 -0.852 1.6594
-0.24801 -0.85294 1.6583
-0.25379 -0.85316 1.6534
-0.2751 -0.85533 1.6593
-0.28493 -0.85606 1.6574
-0.29393 -0.85669 1.655
-0.2997 -0.85691 1.6503
-0.30548 -0.85713 1.6457
-0.32491 -0.85909 1.6511
-0.34426 -0.86106 1.6567
-0.36431 -0.86312 1.6631
-0.37 -0.86334 1.6589
-0.38281 -0.86448 1.6602
-0.38772 -0.8646 1.6554
-0.39187 -0.86461 1.6501
-0.39916 -0.86503 1.6473
-0.40801 -0.86566 1.6457
-0.40448 -0.86464 1.6343
0.04971 -0.81933 1.6944
0.036947 -0.82042 1.6913
0.026831 -0.8212 1.687
0.015833 -0.82208 1.6833
0.0083321 -0.82253 1.6777
-0.013135 -0.82471 1.6799
-0.02498 -0.8257 1.6769
-0.044616 -0.82766 1.6785
-0.056853 -0.82871 1.676
-0.070855 -0.82997 1.6747
-0.077911 -0.83037 1.6694
-0.092262 -0.83168 1.6685
-0.1036 -0.83261 1.666
-0.12407 -0.83471 1.6691
-0.13684 -0.83583 1.6677
-0.15276 -0.83736 1.6684
-0.16316 -0.83819 1.6658
-0.16731 -0.83821 1.6593
-0.18901 -0.84049 1.6641
-0.2048 -0.84202 1.6653
-0.21388 -0.84268 1.6623
-0.21882 -0.8428 1.6566
-0.22875 -0.84357 1.6543
-0.24195 -0.84477 1.6542
-0.26004 -0.84662 1.6577
-0.26744 -0.84707 1.654
-0.27729 -0.84783 1.652
-0.292 -0.84925 1.6536
-0.29777 -0.84948 1.6489
-0.30437 -0.84981 1.6449
-0.31899 -0.85123 1.6468
-0.32399 -0.85135 1.6417
-0.33378 -0.85212 1.6402
-0.36414 -0.85569 1.6545
-0.36829 -0.8557 1.649
-0.38269 -0.85712 1.6515
-0.38999 -0.85756 1.6486
-0.39963 -0.85833 1.6476
-0.40382 -0.85834 1.6424
-0.40572 -0.85803 1.6352
-0.40997 -0.85804 1.63
0.041985 -0.81168 1.6985
0.038056 -0.8117 1.6909
0.028817 -0.8124 1.6861
0.01694 -0.81343 1.6828
-0.0036674 -0.8156 1.6844
-0.014639 -0.81653 1.6808
-0.021265 -0.81688 1.675
-0.026183 -0.81701 1.6682
-0.041494 -0.8185 1.6674
-0.07227 -0.82203 1.6756
-0.085758 -0.82329 1.6741
-0.09067 -0.82342 1.6677
-0.10329 -0.82457 1.6659
-0.11929 -0.82617 1.6663
-0.13016 -0.82709 1.6637
-0.14526 -0.82858 1.6638
-0.15526 -0.82939 1.6609
-0.16573 -0.83026 1.6584
-0.17824 -0.83141 1.6572
-0.19405 -0.83301 1.6584
-0.20151 -0.83347 1.6542
-0.21767 -0.83513 1.6559
-0.22848 -0.83606 1.6541
-0.24209 -0.83737 1.6544
-0.25075 -0.83801 1.6514
-0.26064 -0.83881 1.6493
-0.27377 -0.84007 1.6496
-0.29334 -0.84223 1.6546
-0.30153 -0.84281 1.6517
-0.30972 -0.84339 1.6488
-0.31551 -0.84363 1.6442
-0.32451 -0.84432 1.6421
-0.33191 -0.84478 1.6388
-0.34921 -0.84666 1.6431
-0.36959 -0.84899 1.65
-0.3824 -0.85025 1.6513
-0.38658 -0.85026 1.6459
-0.39851 -0.8514 1.6467
-0.40775 -0.85214 1.6455
-0.41196 -0.85215 1.6403
-0.41619 -0.85217 1.6351
0.048358 -0.80223 1.6954
0.04177 -0.8026 1.6892
0.036034 -0.80285 1.6825
0.020638 -0.80441 1.681
0.0096321 -0.80538 1.6773
-0.0057276 -0.80693 1.6761
-0.024533 -0.80897 1.677
-0.035501 -0.80993 1.6736
-0.047328 -0.81101 1.6708
-0.051402 -0.81103 1.6637
-0.065808 -0.81247 1.6626
-0.088739 -0.81509 1.6667
-0.099655 -0.81605 1.6639
-0.10929 -0.81684 1.6604
-0.11977 -0.81774 1.6574
-0.14249 -0.82036 1.6622
-0.14914 -0.82073 1.6572
-0.16838 -0.82288 1.6601
-0.17502 -0.82325 1.6553
-0.1925 -0.82516 1.6575
-0.19831 -0.82541 1.6522
-0.21241 -0.82685 1.6524
-0.21911 -0.82722 1.6479
-0.2268 -0.82774 1.644
-0.24595 -0.82991 1.6481
-0.26441 -0.832 1.652
-0.27143 -0.83243 1.648
-0.27725 -0.83268 1.6432
-0.29054 -0.83402 1.6438
-0.29903 -0.83466 1.6411
-0.30326 -0.83467 1.6353
-0.32062 -0.83663 1.6392
-0.33087 -0.83754 1.638
-0.34642 -0.83924 1.641
-0.36337 -0.84117 1.6452
-0.37111 -0.84171 1.6425
-0.38392 -0.84302 1.6438
-0.38925 -0.8432 1.6393
-0.40318 -0.84469 1.6418
-0.40741 -0.8447 1.6365
-0.41166 -0.84472 1.6313
0.057336 -0.79232 1.691
0.045444 -0.79345 1.6875
0.0318 -0.79483 1.6849
0.021234 -0.79577 1.6809
0.0080475 -0.79709 1.6784
-0.013393 -0.79958 1.6805
-0.019156 -0.79985 1.6741
-0.028407 -0.80061 1.6698
-0.042839 -0.80211 1.6684
-0.058967 -0.80385 1.6682
-0.071631 -0.80511 1.6662
-0.081716 -0.80599 1.6627
-0.096911 -0.80761 1.6623
-0.10825 -0.80868 1.6598
-0.12805 -0.81098 1.6626
-0.13976 -0.81211 1.6606
-0.1481 -0.81274 1.6566
-0.1556 -0.81325 1.6521
-0.16354 -0.81382 1.648
-0.18813 -0.81687 1.6547
-0.19229 -0.81688 1.6483
-0.20393 -0.81801 1.6469
-0.20896 -0.81814 1.6411
-0.22058 -0.81927 1.6399
-0.24282 -0.822 1.646
-0.25681 -0.8235 1.6467
-0.26669 -0.82438 1.6447
-0.27334 -0.82476 1.6404
-0.27798 -0.82484 1.6348
-0.29675 -0.82708 1.6394
-0.30659 -0.82796 1.6377
-0.31119 -0.82802 1.6322
-0.32187 -0.82903 1.6313
-0.33562 -0.83052 1.6328
-0.35246 -0.83251 1.6368
-0.37004 -0.83462 1.6416
-0.37427 -0.83463 1.6362
-0.37931 -0.83477 1.6314
-0.38282 -0.83465 1.6254
-0.39407 -0.83578 1.6257
-0.4053 -0.8369 1.6261
0.053923 -0.78411 1.693
0.037647 -0.78593 1.6917
0.024906 -0.78724 1.6888
0.020921 -0.78726 1.6813
0.016896 -0.78727 1.6738
0.0093513 -0.7878 1.6682
-0.0068822 -0.78963 1.6675
-0.024813 -0.79171 1.6679
-0.053041 -0.79533 1.6744
-0.060539 -0.79586 1.6693
-0.067198 -0.79627 1.6637
-0.074733 -0.7968 1.6587
-0.081432 -0.7972 1.6532
-0.10937 -0.80082 1.6606
-0.11858 -0.80161 1.6569
-0.13032 -0.80279 1.6549
-0.13616 -0.80306 1.6492
-0.16381 -0.80668 1.6574
-0.17631 -0.80798 1.6563
-0.1838 -0.80851 1.652
-0.18798 -0.80853 1.6456
-0.2021 -0.81009 1.6457
-0.21126 -0.81087 1.6427
-0.22943 -0.81308 1.6459
-0.23364 -0.81309 1.6398
-0.24033 -0.81349 1.6353
-0.25515 -0.81518 1.6366
-0.2683 -0.81661 1.6369
-0.28988 -0.81939 1.6434
-0.29622 -0.81974 1.6391
-0.30835 -0.82102 1.639
-0.31896 -0.82207 1.638
-0.32967 -0.82313 1.6371
-0.33866 -0.82391 1.6351
-0.34754 -0.82468 1.633
-0.35731 -0.82559 1.6318
-0.3694 -0.82689 1.6324
-0.38261 -0.82838 1.634
-0.39656 -0.83 1.6364
-0.40082 -0.83001 1.6311
-0.40511 -0.83002 1.6259
-0.40943 -0.83003 1.6206
0.034211 -0.77783 1.6937
0.030248 -0.77785 1.6862
0.024498 -0.77813 1.6795
0.016976 -0.77869 1.6739
-0.00099611 -0.78085 1.6741
-0.0059294 -0.781 1.6671
-0.014352 -0.78169 1.6622
-0.029248 -0.78338 1.661
-0.038105 -0.78413 1.6565
-0.056819 -0.78643 1.6578
-0.087429 -0.7906 1.6663
-0.093238 -0.79088 1.6604
-0.10374 -0.79191 1.6574
-0.11592 -0.79319 1.6554
-0.12514 -0.79401 1.6518
-0.14528 -0.79658 1.6551
-0.1528 -0.79713 1.6506
-0.16867 -0.79902 1.6515
-0.17618 -0.79957 1.6471
-0.18204 -0.79985 1.6417
-0.19041 -0.80053 1.6381
-0.19878 -0.80122 1.6344
-0.22888 -0.80545 1.6456
-0.23677 -0.80607 1.642
-0.24507 -0.80675 1.6387
-0.25014 -0.8069 1.6331
-0.25846 -0.80758 1.6299
-0.28087 -0.81061 1.6369
-0.294 -0.8121 1.6375
-0.30265 -0.81285 1.6349
-0.3117 -0.81367 1.6326
-0.31915 -0.81422 1.6293
-0.33352 -0.81594 1.6312
-0.35132 -0.81825 1.6359
-0.35793 -0.81866 1.6322
-0.37236 -0.82042 1.6347
-0.3844 -0.82177 1.6354
-0.39176 -0.82231 1.6325
-0.39604 -0.82232 1.6272
-0.39192 -0.82086 1.615
0.031163 -0.76909 1.6859
0.015803 -0.77091 1.6844
0.010918 -0.77107 1.6774
0.0068657 -0.77109 1.6699
0.0010422 -0.77138 1.6635
-0.0082637 -0.77223 1.659
-0.028336 -0.77483 1.6607
-0.03977 -0.77603 1.6576
-0.056759 -0.77813 1.6579
-0.061767 -0.77829 1.6513
-0.07956 -0.78053 1.6524
-0.10154 -0.78347 1.6562
-0.10824 -0.7839 1.6509
-0.11411 -0.7842 1.6451
-0.12673 -0.7856 1.6435
-0.14434 -0.78785 1.6453
-0.16357 -0.79037 1.6483
-0.17442 -0.7915 1.6461
-0.18195 -0.79207 1.6418
-0.19114 -0.79291 1.6386
-0.20855 -0.79516 1.6411
-0.21894 -0.79621 1.6389
-0.22605 -0.79671 1.6347
-0.23684 -0.79784 1.633
-0.24923 -0.79925 1.6325
-0.26239 -0.80079 1.6328
-0.27513 -0.80226 1.6328
-0.28863 -0.80388 1.6336
-0.29849 -0.80486 1.6318
-0.30676 -0.80557 1.629
-0.31661 -0.80656 1.6274
-0.32842 -0.80789 1.6273
-0.33941 -0.80909 1.6268
-0.35703 -0.81146 1.6315
-0.36911 -0.81286 1.6321
-0.3831 -0.81462 1.6344
-0.39627 -0.81623 1.6361
-0.40053 -0.81624 1.6308
-0.40253 -0.81583 1.6237
0.025033 -0.76147 1.6893
0.021916 -0.76134 1.6813
0.011791 -0.76237 1.6771
0.0077341 -0.76238 1.6697
0.0036381 -0.7624 1.6622
-0.0065365 -0.76343 1.6582
-0.024885 -0.76583 1.6589
-0.043186 -0.76823 1.6598
-0.050754 -0.76882 1.6546
-0.056634 -0.76912 1.6485
-0.082083 -0.77275 1.654
-0.09727 -0.77464 1.6537
-0.10989 -0.7761 1.652
-0.12165 -0.77742 1.6499
-0.12669 -0.77758 1.6436
-0.14179 -0.77947 1.6438
-0.15894 -0.78172 1.6454
-0.17271 -0.7834 1.6451
-0.17859 -0.7837 1.6396
-0.18779 -0.78458 1.6365
-0.20438 -0.78676 1.6383
-0.22011 -0.7888 1.6398
-0.22844 -0.78953 1.6364
-0.23596 -0.79012 1.6324
-0.24592 -0.79114 1.6303
-0.26232 -0.79332 1.6328
-0.26862 -0.7937 1.6282
-0.28054 -0.79508 1.6277
-0.29283 -0.79654 1.6277
-0.30748 -0.79843 1.6295
-0.32286 -0.80046 1.632
-0.33228 -0.80141 1.6302
-0.34875 -0.80366 1.6339
-0.35538 -0.8041 1.6302
-0.36747 -0.80556 1.6308
-0.38185 -0.80744 1.6333
-0.38845 -0.80789 1.6298
-0.39352 -0.80804 1.6251
-0.39709 -0.80791 1.6192
0.0082744 -0.7544 1.6792
0.00075722 -0.75501 1.6737
-0.0033205 -0.75503 1.6663
-0.0082992 -0.75519 1.6594
-0.021047 -0.7567 1.6569
-0.041495 -0.75956 1.659
-0.049922 -0.76033 1.6543
-0.065174 -0.76229 1.6537
-0.082942 -0.7647 1.6547
-0.090927 -0.76539 1.65
-0.10061 -0.76637 1.6465
-0.12501 -0.76998 1.6521
-0.13591 -0.77119 1.6495
-0.14012 -0.77121 1.6428
-0.14852 -0.77197 1.6388
-0.17435 -0.77587 1.6462
-0.18849 -0.77768 1.6462
-0.19931 -0.77889 1.6442
-0.20682 -0.7795 1.6401
-0.21476 -0.78019 1.6362
-0.2227 -0.78088 1.6325
-0.24243 -0.78373 1.637
-0.24751 -0.78389 1.6314
-0.25181 -0.78391 1.6253
-0.26457 -0.78549 1.6253
-0.2781 -0.78722 1.626
-0.29678 -0.78993 1.6306
-0.30346 -0.79039 1.6265
-0.3157 -0.79189 1.6267
-0.32711 -0.79325 1.6263
-0.34869 -0.79655 1.6339
-0.36157 -0.79821 1.635
-0.36585 -0.79822 1.6295
-0.38024 -0.80017 1.632
-0.38685 -0.80063 1.6285
-0.39193 -0.80079 1.6238
-0.39627 -0.80081 1.6184
0.015265 -0.74528 1.6854
0.010813 -0.74538 1.6781
0.0032895 -0.74601 1.6725
-0.0042537 -0.74665 1.667
-0.010954 -0.74713 1.6611
-0.021113 -0.74823 1.6571
-0.032131 -0.74948 1.6538
-0.04144 -0.75043 1.6495
-0.060116 -0.75307 1.6508
-0.074498 -0.75495 1.6498
-0.090121 -0.75705 1.6497
-0.099807 -0.75807 1.6461
-0.10655 -0.75855 1.6408
-0.11332 -0.75903 1.6355
-0.13597 -0.76245 1.6403
-0.15728 -0.76564 1.6446
-0.16773 -0.76681 1.642
-0.17858 -0.76807 1.6398
-0.18367 -0.76824 1.6339
-0.19042 -0.76871 1.6291
-0.21313 -0.77221 1.6352
-0.23085 -0.77478 1.6382
-0.23836 -0.77541 1.6342
-0.2467 -0.77619 1.6309
-0.25664 -0.77729 1.6288
-0.26938 -0.77893 1.6288
-0.28849 -0.7818 1.6336
-0.29756 -0.78274 1.6312
-0.30186 -0.78275 1.6254
-0.31331 -0.78416 1.6249
-0.32906 -0.78641 1.6278
-0.35337 -0.79037 1.6375
-0.3592 -0.79069 1.6331
-0.36427 -0.79086 1.6283
-0.36859 -0.79087 1.6228
-0.37294 -0.79088 1.6173
-0.38039 -0.79151 1.6144
-0.38478 -0.79152 1.609
-0.00058174 -0.73888 1.6845
-0.0037426 -0.73874 1.6766
-0.0060843 -0.73843 1.6682
-0.010197 -0.73845 1.6609
-0.017352 -0.73902 1.6552
-0.024528 -0.7396 1.6496
-0.056037 -0.74474 1.6582
-0.061904 -0.74507 1.6521
-0.072036 -0.74621 1.6485
-0.084703 -0.74782 1.6466
-0.10662 -0.7512 1.6504
-0.11502 -0.75201 1.6462
-0.12093 -0.75235 1.6404
-0.13186 -0.75364 1.6379
-0.14195 -0.75477 1.6349
-0.15369 -0.75623 1.633
-0.16872 -0.75832 1.6335
-0.19523 -0.76265 1.6417
-0.19948 -0.76267 1.6353
-0.20867 -0.76364 1.6323
-0.21542 -0.76413 1.6276
-0.22704 -0.76559 1.6264
-0.23299 -0.76592 1.6213
-0.25023 -0.76849 1.6243
-0.26861 -0.7713 1.6283
-0.28212 -0.77315 1.629
-0.28882 -0.77364 1.6248
-0.29633 -0.7743 1.6213
-0.30149 -0.77447 1.616
-0.32907 -0.7792 1.6278
-0.3471 -0.782 1.6327
-0.35764 -0.7833 1.6319
-0.36194 -0.78331 1.6264
-0.37324 -0.78476 1.6264
-0.37988 -0.78525 1.6228
-0.3873 -0.7859 1.6199
0.012563 -0.72708 1.6679
0.011033 -0.7266 1.659
-0.0077556 -0.72942 1.6597
-0.011916 -0.72944 1.6523
-0.03065 -0.73226 1.6533
-0.046779 -0.73459 1.653
-0.058623 -0.7361 1.6503
-0.062835 -0.73611 1.6432
-0.085236 -0.73968 1.6471
-0.11766 -0.74522 1.6573
-0.12183 -0.74524 1.6505
-0.12604 -0.74525 1.6438
-0.13279 -0.74576 1.6386
-0.14827 -0.74801 1.639
-0.16372 -0.75025 1.6396
-0.18201 -0.75307 1.6423
-0.18708 -0.75325 1.6364
-0.19874 -0.75475 1.6349
-0.21323 -0.75683 1.6354
-0.22037 -0.75742 1.6311
-0.22549 -0.7576 1.6254
-0.23468 -0.7586 1.6226
-0.24145 -0.75911 1.6181
-0.25344 -0.76069 1.6174
-0.27977 -0.76524 1.6273
-0.2849 -0.76542 1.6219
-0.29084 -0.76576 1.6172
-0.30391 -0.76759 1.6178
-0.33225 -0.77263 1.6302
-0.34165 -0.77372 1.6285
-0.34831 -0.77422 1.6247
-0.35654 -0.77506 1.6221
-0.36708 -0.77639 1.6215
-0.37529 -0.77723 1.6191
-0.37967 -0.77724 1.6137
-0.010909 -0.72305 1.681
-0.014961 -0.72307 1.6736
-0.019053 -0.72308 1.6663
-0.019808 -0.72243 1.657
-0.023986 -0.72244 1.6497
-0.029056 -0.72263 1.6429
-0.052838 -0.72656 1.6471
-0.071458 -0.72947 1.6485
-0.076947 -0.72974 1.6422
-0.093397 -0.73223 1.6427
-0.11023 -0.7348 1.6435
-0.12283 -0.73651 1.6419
-0.13625 -0.7384 1.6409
-0.14591 -0.73952 1.6377
-0.16466 -0.74252 1.6404
-0.17634 -0.74406 1.6387
-0.18555 -0.7451 1.6355
-0.18984 -0.74511 1.629
-0.1958 -0.74547 1.6237
-0.20747 -0.74701 1.6223
-0.23126 -0.75111 1.6295
-0.2372 -0.75146 1.6244
-0.24476 -0.75216 1.6205
-0.25794 -0.75404 1.6207
-0.2671 -0.75508 1.6181
-0.27704 -0.75628 1.6162
-0.29884 -0.76004 1.6232
-0.32527 -0.76482 1.6339
-0.33035 -0.765 1.6288
-0.34484 -0.76722 1.6309
-0.34916 -0.76723 1.6253
-0.35661 -0.76793 1.6222
-0.37101 -0.77015 1.6246
-0.37536 -0.77016 1.6191
-0.37744 -0.76966 1.6118
-0.024009 -0.71719 1.6884
-0.029747 -0.71755 1.682
-0.033797 -0.71757 1.6748
-0.024456 -0.71483 1.6599
-0.021637 -0.71341 1.6486
-0.025865 -0.71342 1.6412
-0.053885 -0.71835 1.6479
-0.06319 -0.71942 1.6438
-0.072078 -0.7204 1.6395
-0.086856 -0.72261 1.6388
-0.10788 -0.72614 1.6422
-0.12383 -0.72861 1.6427
-0.13974 -0.73108 1.6433
-0.14524 -0.73135 1.6374
-0.15076 -0.73163 1.6315
-0.15673 -0.732 1.6259
-0.18241 -0.73657 1.6335
-0.19081 -0.73746 1.6298
-0.20043 -0.73862 1.6269
-0.20842 -0.73942 1.6231
-0.21683 -0.74031 1.6195
-0.24055 -0.74453 1.6268
-0.2449 -0.74454 1.6207
-0.25567 -0.74596 1.6191
-0.26404 -0.74685 1.6159
-0.29066 -0.75177 1.6262
-0.30844 -0.75477 1.6303
-0.31749 -0.75583 1.6281
-0.32653 -0.75689 1.6259
-0.334 -0.75761 1.6226
-0.33837 -0.75762 1.6169
-0.35515 -0.76044 1.621
-0.36146 -0.76089 1.617
-0.37238 -0.76239 1.6167
-0.37219 -0.76135 1.6075
-0.039433 -0.71114 1.6877
-0.043457 -0.71115 1.6804
-0.04153 -0.7099 1.6698
-0.022679 -0.70505 1.6494
-0.026113 -0.7049 1.6416
-0.045638 -0.70817 1.6433
-0.058347 -0.70999 1.6411
-0.070197 -0.71163 1.6385
-0.086234 -0.71417 1.6386
-0.095539 -0.71527 1.6348
-0.11319 -0.71818 1.6362
-0.12247 -0.71927 1.6325
-0.14584 -0.72344 1.6379
-0.15673 -0.7249 1.6355
-0.16844 -0.72654 1.6337
-0.17357 -0.72673 1.6277
-0.18445 -0.72819 1.6256
-0.19816 -0.73028 1.6255
-0.21265 -0.73255 1.626
-0.21781 -0.73275 1.6203
-0.23668 -0.73601 1.6242
-0.24265 -0.73638 1.6191
-0.25982 -0.73929 1.6222
-0.26578 -0.73966 1.6172
-0.29714 -0.74581 1.631
-0.31015 -0.74781 1.6316
-0.32155 -0.74944 1.6311
-0.32666 -0.74964 1.626
-0.33101 -0.74965 1.6203
-0.3385 -0.75038 1.617
-0.34367 -0.75057 1.612
-0.35426 -0.75203 1.6113
-0.36406 -0.7533 1.61
-0.3685 -0.75332 1.6045
-0.026569 -0.69909 1.6712
-0.027265 -0.69836 1.6619
-0.02802 -0.69763 1.6527
-0.030589 -0.69729 1.6444
-0.036117 -0.69758 1.6379
-0.048852 -0.69945 1.6356
-0.0693 -0.70303 1.6382
-0.085647 -0.70572 1.6385
-0.1008 -0.70815 1.6382
-0.10593 -0.70835 1.6318
-0.12852 -0.71245 1.6365
-0.14193 -0.71451 1.6355
-0.15118 -0.71564 1.632
-0.15961 -0.71658 1.6281
-0.18034 -0.72031 1.6323
-0.19119 -0.72181 1.6302
-0.19837 -0.72247 1.6257
-0.20475 -0.72295 1.6207
-0.22366 -0.7263 1.6244
-0.23527 -0.72799 1.6232
-0.24044 -0.72819 1.6176
-0.24883 -0.72913 1.6143
-0.27551 -0.73434 1.6244
-0.30681 -0.74066 1.6381
-0.31189 -0.74086 1.6329
-0.31621 -0.74087 1.6271
-0.32055 -0.74089 1.6214
-0.32493 -0.7409 1.6156
-0.33478 -0.74221 1.6141
-0.35157 -0.74519 1.6181
-0.35635 -0.7453 1.6129
-0.36499 -0.74633 1.6107
-0.36561 -0.74541 1.6021
-0.020227 -0.69004 1.6775
-0.044009 -0.69445 1.6812
-0.048074 -0.69447 1.674
-0.015574 -0.68627 1.6458
-0.01983 -0.68629 1.6384
-0.024125 -0.6863 1.631
-0.039421 -0.6888 1.6302
-0.068169 -0.69436 1.6377
-0.084633 -0.69715 1.638
-0.099369 -0.69955 1.6375
-0.10408 -0.69966 1.6308
-0.11755 -0.70177 1.6297
-0.13387 -0.70455 1.6305
-0.15469 -0.70839 1.6344
-0.16188 -0.70907 1.6297
-0.1724 -0.71052 1.6272
-0.18573 -0.71264 1.6267
-0.19455 -0.7137 1.6232
-0.21552 -0.71763 1.6282
-0.22067 -0.71783 1.6224
-0.22907 -0.7188 1.619
-0.23747 -0.71977 1.6156
-0.25026 -0.72178 1.6154
-0.29559 -0.73162 1.639
-0.29988 -0.73163 1.6331
-0.3042 -0.73165 1.6272
-0.30777 -0.73147 1.6208
-0.31215 -0.73148 1.615
-0.32981 -0.73473 1.6193
-0.33576 -0.73513 1.6149
-0.34404 -0.73609 1.6122
-0.35462 -0.73763 1.6115
-0.36289 -0.7386 1.609
-0.36734 -0.73861 1.6035
0.040344 -0.66764 1.6443
-0.028092 -0.68237 1.6726
-0.032207 -0.68239 1.6652
-0.027856 -0.68044 1.6531
-0.030381 -0.68006 1.6448
-0.034646 -0.68008 1.6375
-0.03895 -0.68009 1.6302
-0.067226 -0.6857 1.6373
-0.079482 -0.68758 1.6351
-0.093811 -0.68994 1.6342
-0.098963 -0.69015 1.6278
-0.10663 -0.69095 1.6229
-0.12919 -0.69528 1.6277
-0.14754 -0.69863 1.6299
-0.15844 -0.70021 1.6276
-0.16407 -0.70053 1.6218
-0.17579 -0.70231 1.6201
-0.19033 -0.70477 1.6205
-0.2113 -0.7088 1.6254
-0.23662 -0.71391 1.6336
-0.2582 -0.71814 1.6395
-0.27329 -0.72079 1.6411
-0.28295 -0.72213 1.6389
-0.29061 -0.72297 1.6354
-0.29414 -0.72279 1.6289
-0.29416 -0.72172 1.6198
-0.29816 -0.72164 1.6136
-0.30259 -0.72165 1.6077
-0.32339 -0.72578 1.6144
-0.33091 -0.72657 1.6111
-0.33536 -0.72659 1.6054
-0.34156 -0.72704 1.6011
-0.35122 -0.72837 1.5996
-0.35573 -0.72838 1.594
0.10608 -0.64529 1.6292
-0.024075 -0.67192 1.6609
-0.025708 -0.67133 1.6521
-0.029938 -0.67135 1.6447
-0.034208 -0.67136 1.6374
-0.04525 -0.67299 1.6341
-0.067193 -0.67723 1.6375
-0.082371 -0.67986 1.637
-0.087515 -0.68007 1.6305
-0.099337 -0.6819 1.6282
-0.1128 -0.68413 1.627
-0.13243 -0.68786 1.6299
-0.14377 -0.68959 1.6276
-0.15223 -0.69061 1.6236
-0.15906 -0.69122 1.6186
-0.18056 -0.69546 1.6234
-0.19142 -0.69708 1.6213
-0.24025 -0.70816 1.6453
-0.25337 -0.71038 1.6453
-0.26565 -0.71241 1.6448
-0.27711 -0.71423 1.6438
-0.28456 -0.71505 1.6401
-0.28569 -0.71426 1.6319
-0.29002 -0.71427 1.6259
-0.29439 -0.71428 1.62
-0.29644 -0.71369 1.6123
-0.30089 -0.7137 1.6064
-0.30536 -0.71371 1.6006
-0.31528 -0.71513 1.5989
-0.32904 -0.71756 1.6004
-0.33585 -0.71817 1.5965
-0.33809 -0.71758 1.589
0.11157 -0.63465 1.6266
0.087445 -0.63942 1.6292
0.073667 -0.64171 1.6265
0.0078152 -0.65658 1.653
-0.035573 -0.66609 1.6677
-0.039723 -0.66611 1.6604
-0.040528 -0.6653 1.6511
-0.044768 -0.66531 1.6439
-0.048206 -0.66512 1.6361
-0.053782 -0.66545 1.6297
-0.077768 -0.67031 1.6344
-0.088758 -0.67198 1.6315
-0.10472 -0.67488 1.6317
-0.12561 -0.67902 1.6353
-0.13117 -0.67934 1.6292
-0.13758 -0.67987 1.6238
-0.14196 -0.67989 1.617
-0.26091 -0.70471 1.6506
-0.26836 -0.70554 1.6467
-0.27262 -0.70556 1.6407
-0.27691 -0.70557 1.6347
-0.28282 -0.70599 1.6298
-0.28402 -0.70518 1.6215
-0.28842 -0.70519 1.6156
-0.29207 -0.705 1.6091
-0.29653 -0.70501 1.6031
-0.30336 -0.70564 1.599
-0.32102 -0.70916 1.6034
-0.32628 -0.70938 1.5982
-0.33655 -0.71094 1.597
-0.34146 -0.71105 1.5917
0.10411 -0.62712 1.6309
0.098039 -0.62756 1.6238
-0.035089 -0.65639 1.658
-0.039297 -0.65641 1.6507
-0.034275 -0.6541 1.638
-0.03859 -0.65411 1.6306
-0.052153 -0.65645 1.6289
-0.077379 -0.66176 1.6344
-0.086704 -0.66304 1.6304
-0.09852 -0.66496 1.628
-0.10537 -0.66561 1.6227
-0.13282 -0.67154 1.6305
-0.14866 -0.67451 1.6311
-0.15465 -0.67495 1.6255
-0.26285 -0.69763 1.652
-0.26709 -0.69765 1.6459
-0.27455 -0.6985 1.6421
-0.27884 -0.69852 1.6361
-0.28079 -0.6979 1.6284
-0.28515 -0.69791 1.6224
-0.2872 -0.69729 1.6147
-0.28773 -0.69624 1.6058
-0.29221 -0.69625 1.5999
-0.30991 -0.69986 1.6041
-0.31595 -0.70029 1.5994
-0.32048 -0.70031 1.5936
-0.33268 -0.70243 1.5939
-0.33876 -0.70287 1.5894
-0.3403 -0.70203 1.5813
0.03139 -0.63611 1.6704
0.030656 -0.63315 1.6408
-0.021646 -0.64541 1.6604
-0.027961 -0.64597 1.6542
-0.032194 -0.64598 1.6468
-0.036467 -0.646 1.6395
-0.040778 -0.64601 1.6322
-0.056 -0.64884 1.6315
-0.072858 -0.6521 1.6319
-0.091336 -0.6558 1.6335
-0.097336 -0.65625 1.6275
-0.1207 -0.66124 1.6325
-0.12998 -0.66256 1.6288
-0.13762 -0.66344 1.6241
-0.14529 -0.66432 1.6195
-0.26 -0.68928 1.6501
-0.26025 -0.68821 1.6412
-0.26456 -0.68822 1.6351
-0.27365 -0.68954 1.6324
-0.27721 -0.68933 1.6258
-0.28159 -0.68934 1.6198
-0.28601 -0.68936 1.6138
-0.28733 -0.6885 1.6055
-0.29338 -0.68895 1.6008
-0.30332 -0.69048 1.599
-0.31325 -0.692 1.5973
-0.31779 -0.69201 1.5915
-0.32236 -0.69203 1.5857
-0.33533 -0.69442 1.5866
0.0020257 -0.63163 1.6572
-0.021766 -0.63676 1.6607
-0.047117 -0.64232 1.6654
-0.051294 -0.64233 1.6582
-0.034491 -0.6368 1.6386
-0.038813 -0.63682 1.6313
-0.058628 -0.64094 1.6333
-0.08088 -0.64572 1.637
-0.08521 -0.64573 1.6299
-0.10199 -0.64907 1.6306
-0.1113 -0.65042 1.6268
-0.12883 -0.65398 1.6283
-0.14712 -0.65776 1.6304
-0.2431 -0.67931 1.6568
-0.24732 -0.67932 1.6506
-0.24116 -0.67645 1.6372
-0.24389 -0.67602 1.6298
-0.23951 -0.6736 1.6174
-0.24395 -0.67361 1.6112
-0.24999 -0.67407 1.6061
-0.2765 -0.68028 1.6161
-0.28721 -0.68207 1.6148
-0.29166 -0.68208 1.6088
-0.29614 -0.68209 1.6029
-0.30065 -0.68211 1.5969
-0.30982 -0.68345 1.5946
-0.31438 -0.68346 1.5888
-0.32775 -0.68602 1.5899
-0.33195 -0.68592 1.5839
-0.33732 -0.68615 1.5788
-0.36501 -0.66535 1.4096
-0.37056 -0.66536 1.4041
-0.37478 -0.66493 1.3972
-0.3804 -0.66494 1.3917
-0.39073 -0.66649 1.3911
-0.41005 -0.66915 1.3888
-0.41372 -0.6685 1.3814
-0.41876 -0.66829 1.3754
-0.4176 -0.66598 1.3626
-0.41916 -0.66456 1.3526
-0.42502 -0.66457 1.3473
-0.42704 -0.66325 1.3377
-0.424 -0.66016 1.3222
-0.41919 -0.65642 1.3045
0.0072451 -0.6236 1.6743
-0.0036151 -0.62431 1.6606
-0.013442 -0.62583 1.6563
-0.046827 -0.63367 1.6656
-0.051008 -0.63369 1.6583
-0.055229 -0.6337 1.651
-0.059489 -0.63372 1.6438
-0.06462 -0.63396 1.6371
-0.088916 -0.63942 1.6421
-0.094052 -0.63966 1.6356
-0.10253 -0.64081 1.6311
-0.11925 -0.64422 1.632
-0.13058 -0.64616 1.6296
-0.22558 -0.66787 1.6542
-0.23063 -0.66811 1.6484
-0.2341 -0.6679 1.6416
-0.2264 -0.66451 1.627
-0.22441 -0.66271 1.6162
-0.22886 -0.66272 1.6099
-0.23492 -0.66319 1.6048
-0.25362 -0.66728 1.6088
-0.27381 -0.67183 1.6142
-0.27827 -0.67184 1.6082
-0.28354 -0.67208 1.6027
-0.29271 -0.67345 1.6003
-0.29801 -0.67369 1.5949
-0.30796 -0.67529 1.5932
-0.31253 -0.6753 1.5873
-0.32171 -0.67667 1.5851
-0.32633 -0.67669 1.5793
-0.33551 -0.67806 1.5772
-0.37676 -0.66287 1.4319
-0.38703 -0.66447 1.4312
-0.38767 -0.6629 1.421
-0.39316 -0.66291 1.4155
-0.40306 -0.66438 1.4146
-0.4153 -0.66664 1.4163
-0.4178 -0.66563 1.4078
-0.4227 -0.66541 1.4019
-0.42764 -0.6652 1.3959
-0.43327 -0.66521 1.3907
-0.43205 -0.66285 1.3779
-0.42832 -0.65958 1.3623
-0.4296 -0.658 1.352
-0.42774 -0.6553 1.338
-0.42984 -0.65395 1.3284
-0.42757 -0.65102 1.3136
-0.0034801 -0.61659 1.6707
-0.0076387 -0.61661 1.6632
-0.012102 -0.6167 1.6559
-0.041506 -0.62363 1.6628
-0.045707 -0.62364 1.6555
-0.050787 -0.62389 1.6487
-0.08015 -0.63086 1.6564
-0.084385 -0.63087 1.6493
-0.091981 -0.63182 1.6442
-0.10125 -0.63322 1.6402
-0.1097 -0.6344 1.6358
-0.12309 -0.63696 1.6346
-0.22848 -0.66091 1.6563
-0.2311 -0.66046 1.6489
-0.22575 -0.65769 1.636
-0.20931 -0.65167 1.6153
-0.21377 -0.65169 1.6089
-0.21826 -0.6517 1.6025
-0.24096 -0.65704 1.6092
-0.25569 -0.66007 1.6104
-0.26488 -0.66147 1.6077
-0.27719 -0.6638 1.6074
-0.28713 -0.66544 1.6054
-0.29048 -0.6651 1.5986
-0.29619 -0.66546 1.5935
-0.3046 -0.66663 1.5905
-0.30919 -0.66665 1.5847
-0.31572 -0.66724 1.5803
-0.32378 -0.66829 1.5772
-0.37642 -0.66176 1.4738
-0.38164 -0.66177 1.4684
-0.38409 -0.66085 1.4602
-0.38938 -0.66087 1.4547
-0.39401 -0.66065 1.4486
-0.39937 -0.66066 1.4432
-0.40201 -0.65974 1.4351
-0.41285 -0.66159 1.4352
-0.42366 -0.66344 1.4355
-0.42672 -0.66264 1.4278
-0.42851 -0.66138 1.4187
-0.43402 -0.66139 1.4135
-0.42963 -0.65793 1.3976
-0.43328 -0.65725 1.3902
-0.42979 -0.65402 1.375
-0.43424 -0.65357 1.3683
-0.43744 -0.65265 1.3603
-0.43684 -0.65035 1.3478
-0.42675 -0.64458 1.3243
-0.42706 -0.64251 1.3124
0.010319 -0.60395 1.6634
0.00017834 -0.60563 1.6592
-0.0074291 -0.60659 1.6535
-0.023539 -0.60994 1.6528
-0.047552 -0.61552 1.6569
-0.076089 -0.62241 1.6638
-0.084466 -0.62361 1.6592
-0.090822 -0.62423 1.6534
-0.095078 -0.62424 1.6463
-0.10185 -0.62497 1.6408
-0.12102 -0.62925 1.6431
-0.12862 -0.63021 1.6383
-0.22316 -0.65277 1.662
-0.22737 -0.65279 1.6557
-0.22759 -0.65162 1.6466
-0.20143 -0.64263 1.6194
-0.20587 -0.64264 1.613
-0.21035 -0.64265 1.6066
-0.2315 -0.64764 1.612
-0.23716 -0.64801 1.6065
-0.25465 -0.65193 1.6097
-0.26305 -0.65313 1.6064
-0.27849 -0.65645 1.6084
-0.28299 -0.65647 1.6023
-0.28752 -0.65648 1.5963
-0.29208 -0.65649 1.5903
-0.30205 -0.65816 1.5886
-0.30743 -0.65841 1.5832
-0.31587 -0.65961 1.5804
-0.32052 -0.65962 1.5746
-0.32822 -0.66058 1.5712
-0.38249 -0.65766 1.4897
-0.38834 -0.65791 1.4849
-0.39561 -0.65863 1.4814
-0.3987 -0.65793 1.474
-0.40462 -0.65818 1.4693
-0.41104 -0.65859 1.4651
-0.4158 -0.65842 1.4593
-0.4211 -0.65844 1.454
-0.42844 -0.65914 1.4508
-0.43108 -0.65821 1.4428
-0.43311 -0.65704 1.434
-0.42852 -0.6535 1.4183
-0.43204 -0.6528 1.4109
-0.43761 -0.65281 1.4057
-0.4432 -0.65282 1.4006
-0.43542 -0.64799 1.3807
0.0061957 -0.59622 1.6661
0.00030684 -0.59672 1.6594
-0.0056111 -0.59722 1.6528
-0.018296 -0.59966 1.6501
-0.03433 -0.60306 1.6495
-0.048656 -0.60598 1.648
-0.091322 -0.61713 1.6635
-0.097031 -0.61758 1.6574
-0.10645 -0.61911 1.6535
-0.11732 -0.62106 1.6506
-0.12572 -0.62229 1.6463
-0.21627 -0.64414 1.6667
-0.22046 -0.64415 1.6604
-0.21743 -0.64198 1.6491
-0.21208 -0.63909 1.6362
-0.21403 -0.63838 1.6282
-0.21683 -0.63791 1.6207
-0.22286 -0.63841 1.6154
-0.22654 -0.63818 1.6085
-0.23183 -0.63843 1.6028
-0.24972 -0.64256 1.6062
-0.26284 -0.64523 1.6063
-0.26736 -0.64524 1.6001
-0.27423 -0.64598 1.5958
-0.28151 -0.64684 1.5918
-0.29265 -0.64891 1.5908
-0.30338 -0.65086 1.5896
-0.31257 -0.65232 1.5873
-0.31719 -0.65233 1.5814
-0.32184 -0.65235 1.5756
-0.32954 -0.65333 1.5722
-0.38295 -0.65346 1.5102
-0.394 -0.65551 1.5103
-0.39903 -0.65552 1.5049
-0.40551 -0.65602 1.5008
-0.41376 -0.65712 1.4985
-0.41886 -0.65713 1.4932
-0.42398 -0.65714 1.4879
-0.42807 -0.65678 1.4816
-0.43223 -0.65642 1.4753
-0.43472 -0.65547 1.4674
-0.43931 -0.65524 1.4615
-0.44258 -0.65453 1.4542
-0.43246 -0.64898 1.433
-0.43057 -0.64633 1.42
-0.43476 -0.64586 1.4134
-0.439 -0.64539 1.4068
-0.43934 -0.64347 1.3959
0.024916 -0.58308 1.6661
0.01138 -0.58581 1.6636
-0.0072193 -0.59003 1.664
-0.012694 -0.59042 1.6572
-0.019884 -0.5913 1.6514
-0.024163 -0.59131 1.6439
-0.031826 -0.59232 1.6385
-0.077002 -0.60444 1.6553
-0.10244 -0.61076 1.6609
-0.1079 -0.61114 1.6546
-0.11217 -0.61116 1.6477
-0.20858 -0.6352 1.671
-0.21275 -0.63521 1.6646
-0.21332 -0.63411 1.6558
-0.21275 -0.63264 1.6462
-0.20943 -0.63031 1.6346
-0.2086 -0.62871 1.6246
-0.21188 -0.62837 1.6174
-0.21952 -0.62937 1.6132
-0.224 -0.62938 1.6068
-0.23364 -0.631 1.6041
-0.25582 -0.63657 1.6106
