# .PCD v.5 - Point Cloud Data file format
#
FIELDS x y z rgba
SIZE 4 4 4 4
TYPE F F F U
COUNT 1 1 1 1
POINTS 1737
DATA ascii
0.16254 0.58226 0.055983 0
0.15005 0.55734 -0.036677 0
0.1272 0.55852 -0.050098 0
0.077174 0.5639 -0.070134 0
0.044591 0.57162 -0.069098 0
0.016942 0.57568 -0.076554 0
-0.016158 0.58309 -0.076942 0
-0.060678 0.59739 -0.063039 0
-0.11744 0.61856 -0.035484 0
-0.1464 0.62194 -0.046182 0
-0.13952 0.60403 -0.10074 0
0.19997 0.63809 0.29535 0
0.19713 0.61696 0.22183 0
0.20666 0.56678 0.059535 0
0.17385 0.57542 0.063833 0
0.15357 0.57363 0.042378 0
0.15614 0.55441 -0.02059 0
0.13765 0.55221 -0.042073 0
0.1149 0.55329 -0.055678 0
0.087455 0.55769 -0.061671 0
0.059946 0.56193 -0.068223 0
-0.0059282 0.57692 -0.06762 0
-0.028355 0.57721 -0.083661 0
-0.084325 0.59824 -0.055122 0
-0.14169 0.6191 -0.028217 0
-0.18185 0.61498 -0.072606 0
0.19625 0.64498 0.32532 0
0.19994 0.61731 0.23421 0
0.17234 0.61969 0.22134 0
0.18791 0.56591 0.050655 0
0.15072 0.57783 0.0629 0
0.15716 0.55533 -0.0085661 0
0.14301 0.54975 -0.038258 0
0.12494 0.54742 -0.059874 0
0.097624 0.55183 -0.065653 0
0.037615 0.56366 -0.071061 0
0.0046591 0.57109 -0.070891 0
-0.023153 0.57489 -0.079114 0
-0.067793 0.58893 -0.065344 0
-0.14198 0.62016 -0.015703 0
-0.13018 0.59916 -0.077986 0
-0.15253 0.59881 -0.096142 0
0.19659 0.65056 0.34613 0
0.19233 0.62975 0.27221 0
0.18293 0.61532 0.21607 0
0.1635 0.61076 0.18585 0
0.18987 0.5685 0.062352 0
0.1526 0.58046 0.074682 0
0.15417 0.56147 0.011384 0
0.14868 0.54908 -0.034861 0
0.13053 0.5468 -0.056404 0
0.10319 0.55124 -0.062068 0
0.07578 0.55554 -0.068287 0
0.043171 0.56314 -0.067216 0
0.015508 0.56714 -0.074654 0
-0.017618 0.57444 -0.075008 0
-0.051051 0.58158 -0.076136 0
-0.11902 0.60936 -0.033391 0
-0.1363 0.60576 -0.058744 0
-0.14106 0.59506 -0.098707 0
0.19169 0.63244 0.29359 0
0.19296 0.6081 0.21138 0
0.15019 0.62385 0.23271 0
0.19554 0.56502 0.066157 0
0.15411 0.58035 0.087082 0
0.15527 0.56153 0.023648 0
0.15396 0.54585 -0.030934 0
0.13571 0.54362 -0.052409 0
0.11316 0.54464 -0.066015 0
0.085876 0.54895 -0.072018 0
0.053418 0.55655 -0.0707 0
0.020617 0.564 -0.070135 0
-0.0071147 0.56785 -0.078017 0
-0.045947 0.57844 -0.071309 0
-0.10239 0.59922 -0.043165 0
-0.14857 0.61293 -0.031402 0
-0.142 0.59542 -0.086217 0
0.1877 0.64265 0.34487 0
0.20215 0.60541 0.22744 0
0.1618 0.57824 0.10312 0
0.15369 0.56644 0.056279 0
0.16035 0.54425 -0.015196 0
0.14637 0.53874 -0.044824 0
0.12371 0.53983 -0.05824 0
0.10617 0.53737 -0.080058 0
0.041518 0.55243 -0.077198 0
0.003352 0.56316 -0.069159 0
-0.024472 0.5669 -0.077365 0
-0.069157 0.58075 -0.063538 0
-0.14345 0.61153 -0.013767 0
-0.12569 0.58741 -0.083459 0
-0.15392 0.59049 -0.094294 0
0.19152 0.64454 0.35702 0
0.20168 0.61077 0.24812 0
0.18144 0.6065 0.21804 0
0.13837 0.62209 0.23915 0
0.16394 0.58051 0.11501 0
0.15548 0.56878 0.068105 0
0.16167 0.54668 -0.003507 0
0.15197 0.53784 -0.041401 0
0.12926 0.53897 -0.054724 0
0.10676 0.53995 -0.06842 0
0.084493 0.54077 -0.082486 0
0.019468 0.5556 -0.08065 0
-0.013539 0.56279 -0.080873 0
-0.052433 0.57324 -0.074305 0
-0.12621 0.60403 -0.023982 0
-0.13776 0.59707 -0.056809 0
-0.14847 0.58993 -0.089576 0
0.18768 0.60221 0.22207 0
0.16164 0.58316 0.13605 0
0.15267 0.57158 0.088995 0
0.16264 0.54633 0.0087886 0
0.15715 0.53424 -0.037433 0
0.13439 0.5354 -0.050659 0
0.062292 0.54135 -0.084679 0
0.029755 0.54868 -0.083886 0
-0.0085177 0.55926 -0.076157 0
-0.041838 0.56629 -0.076996 0
-0.10958 0.59354 -0.033673 0
-0.13848 0.59684 -0.044106 0
-0.14349 0.5864 -0.084232 0
0.19335 0.62332 0.30816 0
0.19048 0.60281 0.23439 0
0.13557 0.60719 0.20801 0
0.15026 0.57581 0.10962 0
0.15958 0.55074 0.029166 0
0.15809 0.5354 -0.02551 0
0.13976 0.53325 -0.046923 0
0.094773 0.53518 -0.074309 0
0.06753 0.53929 -0.080635 0
0.007511 0.55045 -0.087239 0
-0.031042 0.56087 -0.080101 0
-0.081489 0.57791 -0.058905 0
-0.15043 0.60493 -0.01689 0
-0.14417 0.5878 -0.071951 0
0.1935 0.6288 0.32896 0
0.19734 0.60182 0.23765 0
0.15823 0.61405 0.25068 0
0.14829 0.58165 0.12996 0
0.15936 0.53807 -0.013888 0
0.14539 0.53262 -0.043534 0
0.12749 0.53034 -0.065077 0
0.045705 0.54277 -0.083711 0
0.018334 0.54662 -0.091039 0
-0.020036 0.55708 -0.08363 0
-0.064615 0.57076 -0.069653 0
-0.1446 0.60457 -0.012232 0
-0.13858 0.58749 -0.067337 0
-0.17916 0.59728 -0.063934 0
0.19329 0.6311 0.3505 0
0.20736 0.59459 0.23279 0
0.17986 0.59693 0.22014 0
0.14601 0.58456 0.15097 0
0.1603 0.53806 -0.0016863 0
0.13263 0.52713 -0.061096 0
0.11515 0.52474 -0.082765 0
0.093174 0.52554 -0.096641 0
0.055934 0.53625 -0.087241 0
0.028677 0.54011 -0.094349 0
-0.01497 0.5539 -0.078975 0
-0.053901 0.56418 -0.072358 0
-0.11632 0.58775 -0.03684 0
-0.12758 0.5809 -0.069484 0
-0.15 0.5806 -0.087551 0
0.19591 0.60813 0.28006 0
0.19013 0.59098 0.21513 0
0.15568 0.56072 0.082168 0
0.16149 0.53911 0.010306 0
0.15605 0.52718 -0.035963 0
0.12039 0.52266 -0.078969 0
0.098359 0.52349 -0.092753 0
0.071421 0.52751 -0.098994 0
0.039152 0.53473 -0.097978 0
0.0011338 0.54516 -0.090008 0
-0.043042 0.55879 -0.0754 0
-0.09947 0.57897 -0.046979 0
-0.13393 0.58558 -0.049789 0
-0.14476 0.57862 -0.082557 0
0.18828 0.61745 0.31891 0
0.18905 0.59402 0.23629 0
0.13819 0.61581 0.27506 0
0.13412 0.59833 0.20993 0
0.14892 0.56742 0.11141 0
0.15832 0.54271 0.030848 0
0.15687 0.5276 -0.023892 0
0.1432 0.52218 -0.053525 0
0.12554 0.51988 -0.07506 0
0.10345 0.52075 -0.088751 0
0.049467 0.52868 -0.10154 0
0.011627 0.53909 -0.093295 0
-0.026818 0.54936 -0.086011 0
-0.082847 0.56947 -0.057105 0
-0.14027 0.58942 -0.029832 0
-0.13961 0.57588 -0.077428 0
0.1955 0.61631 0.3222 0
0.14906 0.61151 0.26992 0
0.13286 0.60389 0.23055 0
0.14691 0.57309 0.13178 0
0.15996 0.5452 0.042589 0
0.16258 0.52687 -0.020565 0
0.14417 0.52479 -0.041914 0
0.13104 0.51924 -0.071611 0
0.10889 0.52014 -0.085211 0
0.086968 0.52089 -0.099176 0
0.060068 0.52481 -0.10564 0
0.027766 0.53192 -0.10489 0
-0.015845 0.54554 -0.089569 0
-0.065961 0.56235 -0.067868 0
-0.14606 0.59565 -0.010302 0
-0.14589 0.58215 -0.058131 0
0.19895 0.61664 0.33464 0
0.20249 0.59025 0.24315 0
0.17101 0.5958 0.23909 0
0.1315 0.60771 0.25159 0
0.16366 0.52794 -0.0086163 0
0.15416 0.51934 -0.046497 0
0.13159 0.52043 -0.059721 0
0.11412 0.51807 -0.081398 0
0.092141 0.51885 -0.095272 0
0.065216 0.5228 -0.10162 0
0.038238 0.5266 -0.10851 0
-0.010622 0.54352 -0.085194 0
-0.049441 0.55367 -0.078436 0
-0.11753 0.58026 -0.03524 0
-0.13465 0.57681 -0.060531 0
-0.16923 0.58314 -0.06417 0
0.19045 0.60556 0.312 0
0.13289 0.61033 0.28556 0
0.13682 0.58667 0.20316 0
0.15713 0.53507 0.032417 0
0.16025 0.51692 -0.030695 0
0.14208 0.51483 -0.052039 0
0.12443 0.51257 -0.073582 0
0.10234 0.51342 -0.087269 0
0.048326 0.52123 -0.10003 0
0.021245 0.52492 -0.10725 0
-0.028022 0.54161 -0.084413 0
-0.078435 0.55815 -0.062973 0
-0.13578 0.57781 -0.035514 0
-0.14685 0.57103 -0.068389 0
0.19413 0.60785 0.32402 0
0.1909 0.58802 0.25001 0
0.14 0.60953 0.28902 0
0.13153 0.59559 0.23231 0
0.14984 0.562 0.12493 0
0.1588 0.53773 0.044125 0
0.16148 0.51965 -0.0191 0
0.1477 0.51434 -0.048704 0
0.12996 0.51212 -0.070176 0
0.085881 0.51375 -0.097733 0
0.058969 0.51762 -0.10418 0
0.032006 0.52134 -0.11118 0
-0.011503 0.53477 -0.095706 0
-0.061529 0.55134 -0.073836 0
-0.13002 0.57761 -0.030972 0
-0.14716 0.57415 -0.056447 0
0.1974 0.607 0.3367 0
0.20103 0.58102 0.24509 0
0.126 0.6014 0.26221 0
0.15156 0.54405 0.073295 0
0.1624 0.51969 -0.0069521 0
0.15294 0.51123 -0.044871 0
0.13037 0.5123 -0.058089 0
0.1129 0.50998 -0.079777 0
0.090917 0.51075 -0.093646 0
0.063979 0.51463 -0.099972 0
-0.00098869 0.5285 -0.098874 0
-0.050783 0.54501 -0.076655 0
-0.10746 0.56464 -0.048342 0
-0.14195 0.57104 -0.051252 0
-0.2008 0.59032 -0.025837 0
0.20402 0.5814 0.25741 0
0.12482 0.60498 0.28336 0
0.15321 0.54482 0.085453 0
0.16355 0.52063 0.0050329 0
0.15833 0.50903 -0.041246 0
0.11815 0.50785 -0.075989 0
0.096109 0.50866 -0.089765 0
0.042126 0.51632 -0.10273 0
0.0096251 0.52319 -0.10232 0
-0.034351 0.53643 -0.087394 0
-0.096343 0.55927 -0.051071 0
-0.13657 0.56894 -0.046296 0
-0.16533 0.57193 -0.057175 0
0.20704 0.58139 0.26982 0
0.12763 0.60495 0.296 0
0.13553 0.57846 0.20486 0
0.15067 0.54841 0.10619 0
0.16474 0.5212 0.017102 0
0.15917 0.50971 -0.029263 0
0.14568 0.50443 -0.058852 0
0.12337 0.50541 -0.072166 0
0.10127 0.50625 -0.08585 0
0.052496 0.51071 -0.10645 0
-0.018081 0.52756 -0.098212 0
-0.079637 0.55033 -0.061377 0
-0.13121 0.56648 -0.041295 0
-0.15406 0.56626 -0.059395 0
0.20694 0.58661 0.29061 0
0.13823 0.58072 0.21691 0
0.1486 0.55396 0.12658 0
0.16196 0.52685 0.037243 0
0.16037 0.51222 -0.017624 0
0.1466 0.50699 -0.047249 0
0.12887 0.5048 -0.06873 0
0.10672 0.50568 -0.082321 0
0.084787 0.5064 -0.09628 0
0.030889 0.51388 -0.1097 0
-0.0071498 0.52388 -0.10186 0
-0.062738 0.54344 -0.07223 0
-0.11973 0.56285 -0.044225 0
-0.14844 0.56591 -0.054749 0
0.19227 0.57808 0.2645 0
0.13364 0.60542 0.32117 0
0.14616 0.55595 0.14773 0
0.15886 0.52912 0.058107 0
0.16118 0.51149 -0.0053337 0
0.15175 0.50316 -0.043289 0
0.13392 0.50102 -0.064702 0
0.11171 0.50193 -0.0782 0
0.089728 0.50268 -0.092066 0
0.062776 0.5065 -0.098374 0
0.0032434 0.51693 -0.10494 0
-0.046465 0.53317 -0.082542 0
-0.10307 0.55248 -0.054037 0
-0.14925 0.5652 -0.041997 0
0.21274 0.56546 0.25419 0
0.13812 0.56562 0.19825 0
0.15351 0.53608 0.099515 0
0.16783 0.50933 0.010387 0
0.14445 0.49597 -0.05722 0
0.12213 0.49694 -0.07053 0
0.10003 0.49776 -0.084209 0
0.073032 0.50161 -0.090278 0
0.051246 0.50215 -0.10478 0
0.018867 0.5089 -0.10409 0
-0.019391 0.5187 -0.096471 0
-0.075329 0.5379 -0.067106 0
-0.1385 0.56013 -0.031903 0
-0.17343 0.56628 -0.03539 0
0.18809 0.56983 0.25374 0
0.11768 0.60618 0.33634 0
0.15557 0.53837 0.11139 0
0.16065 0.51798 0.038984 0
0.14536 0.49846 -0.0456 0
0.13243 0.49315 -0.075277 0
0.083548 0.49788 -0.094632 0
0.056611 0.50162 -0.10105 0
0.029622 0.50523 -0.10801 0
-0.0084517 0.51505 -0.10013 0
-0.052781 0.52791 -0.085615 0
-0.13278 0.5597 -0.027319 0
-0.15583 0.55953 -0.045433 0
0.1909 0.56907 0.26631 0
0.11299 0.6114 0.36662 0
0.15317 0.54109 0.13235 0
0.16195 0.51777 0.051243 0
0.16449 0.50041 -0.012189 0
0.14601 0.49847 -0.033491 0
0.1328 0.49324 -0.063214 0
0.066844 0.49547 -0.1048 0
0.0020719 0.50888 -0.10338 0
-0.042057 0.5217 -0.088549 0
-0.11013 0.54703 -0.044799 0
-0.15649 0.55954 -0.032811 0
0.19761 0.56633 0.26988 0
0.13914 0.59314 0.32696 0
0.12586 0.58301 0.27858 0
0.14697 0.54787 0.16174 0
0.16349 0.51854 0.063329 0
0.17003 0.49819 -0.0086391 0
0.1334 0.49425 -0.051307 0
0.093814 0.49281 -0.086714 0
0.066825 0.49659 -0.092888 0
0.045096 0.49708 -0.10748 0
0.0072339 0.50688 -0.09914 0
-0.025628 0.51339 -0.099428 0
-0.087489 0.5355 -0.062699 0
-0.15101 0.55745 -0.02782 0
0.20422 0.56276 0.27357 0
0.16857 0.57115 0.27847 0
0.10896 0.5978 0.33465 0
0.14089 0.55377 0.19139 0
0.15653 0.52468 0.092611 0
0.16231 0.50453 0.020326 0
0.15682 0.4934 -0.026139 0
0.14337 0.48829 -0.055774 0
0.12104 0.48924 -0.069078 0
0.050137 0.49437 -0.10331 0
0.017737 0.50101 -0.10258 0
-0.020553 0.51065 -0.094926 0
-0.065135 0.52328 -0.080658 0
-0.14564 0.55456 -0.0227 0
-0.21065 0.57626 0.010604 0
0.19694 0.57382 0.31208 0
0.18304 0.56402 0.26426 0
0.11624 0.59675 0.33825 0
0.13541 0.56205 0.22066 0
0.15854 0.52693 0.10448 0
0.16385 0.50685 0.032065 0
0.14427 0.49073 -0.044142 0
0.099433 0.49257 -0.071116 0
0.028504 0.49738 -0.10652 0
-0.0096024 0.50704 -0.098598 0
-0.048298 0.51657 -0.091646 0
-0.1457 0.55725 -0.010579 0
-0.18093 0.56333 -0.014104 0
0.18585 0.56292 0.27691 0
0.15606 0.52931 0.12547 0
0.16508 0.50637 0.044346 0
0.16336 0.49236 -0.010678 0
0.13169 0.4853 -0.061733 0
0.10455 0.48926 -0.067086 0
0.082415 0.49 -0.081037 0
0.055292 0.49369 -0.087408 0
0.00090588 0.50068 -0.10183 0
-0.043265 0.51329 -0.086942 0
-0.13455 0.55063 -0.012912 0
-0.17558 0.55982 -0.0087333 0
0.19187 0.56146 0.30205 0
0.14061 0.5817 0.34183 0
0.14761 0.53766 0.17611 0
0.17641 0.50001 0.051749 0
0.17423 0.48625 -0.0033215 0
0.16468 0.47835 -0.04122 0
0.13744 0.48247 -0.045864 0
0.10271 0.47808 -0.089215 0
0.070681 0.48486 -0.08715 0
0.043596 0.48844 -0.09374 0
0.016465 0.49189 -0.10089 0
-0.01628 0.49828 -0.10089 0
-0.060769 0.51067 -0.086461 0
-0.18226 0.56288 0.024243 0
0.16308 0.57019 0.30987 0
0.10316 0.59644 0.36621 0
0.14223 0.54723 0.20511 0
0.18261 0.50053 0.054724 0
0.18018 0.48679 -0.00034206 0
0.13854 0.48613 -0.034432 0
0.11105 0.49017 -0.039603 0
0.093404 0.48795 -0.061577 0
0.081395 0.4825 -0.091768 0
0.054434 0.48613 -0.098149 0
0.032824 0.48654 -0.11292 0
-0.0051705 0.49605 -0.10485 0
-0.04944 0.5085 -0.090127 0
-0.18773 0.57008 0.043775 0
0.15808 0.57977 0.3832 0
0.12187 0.56656 0.30365 0
0.17111 0.51206 0.12583 0
0.19244 0.48087 0.018885 0
0.084846 0.4945 -0.0087832 0
0.076731 0.48627 -0.047427 0
0.064578 0.48088 -0.077874 0
0.037337 0.48442 -0.084547 0
0.015499 0.48479 -0.099604 0
-0.017264 0.49108 -0.099583 0
-0.061788 0.50329 -0.085104 0
0.12797 0.58699 0.39085 0
0.10559 0.58334 0.35946 0
0.15309 0.52904 0.18093 0
0.19831 0.48014 0.02201 0
0.15128 0.48278 -0.0031497 0
0.12808 0.4839 -0.016319 0
0.095442 0.49088 -0.013423 0
0.06741 0.49474 -0.01941 0
0.064928 0.48338 -0.066175 0
-0.011873 0.49065 -0.095575 0
-0.044936 0.49684 -0.096184 0
0.13897 0.58144 0.38583 0
0.19567 0.48404 0.042513 0
0.18469 0.47656 0.0045484 0
0.15689 0.48082 0.00037808 0
0.12436 0.48794 0.0039855 0
0.1058 0.48596 -0.0179 0
0.072959 0.49283 -0.015513 0
0.060103 0.48756 -0.046151 0
0.04284 0.48514 -0.068819 0
-0.0011219 0.48589 -0.099128 0
0.13769 0.5429 0.2493 0
0.19293 0.48596 0.063419 0
0.19009 0.4727 0.0082556 0
0.16227 0.47696 0.0042125 0
0.11593 0.49294 0.033074 0
0.068452 0.49493 0.0050822 0
0.042727 0.4844 -0.056494 0
0.015067 0.48787 -0.063565 0
-0.0016498 0.48522 -0.086815 0
-0.10848 0.51839 -0.035015 0
0.19056 0.48938 0.084108 0
0.19144 0.47331 0.020218 0
0.17229 0.47171 -0.00073301 0
0.13536 0.48175 0.011653 0
0.10719 0.48578 0.0065223 0
0.078931 0.48968 0.0008209 0
0.042908 0.4852 -0.044423 0
0.015075 0.48869 -0.051468 0
-0.018298 0.48334 -0.098207 0
-0.068598 0.49834 -0.076049 0
0.10818 0.57114 0.35249 0
0.18043 0.5002 0.12188 0
0.19308 0.47545 0.031927 0
0.17807 0.47095 0.0024778 0
0.1412 0.48101 0.015028 0
0.10832 0.48802 0.018346 0
0.084732 0.489 0.004439 0
0.061375 0.48984 -0.0098616 0
0.048517 0.48461 -0.040659 0
-0.00182 0.48854 -0.062942 0
-0.012914 0.48285 -0.094189 0
-0.0517 0.49191 -0.087117 0
0.16051 0.51713 0.19864 0
0.18778 0.48128 0.073367 0
0.17621 0.47404 0.035162 0
0.1613 0.46953 0.0055012 0
0.10568 0.49109 0.051183 0
0.086291 0.48923 0.028925 0
0.067431 0.48721 0.0064429 0
0.049105 0.48504 -0.016251 0
-0.0019989 0.48908 -0.038481 0
-0.019138 0.48648 -0.062041 0
-0.030089 0.48078 -0.093488 0
-0.12113 0.51618 -0.018337 0
0.1391 0.53372 0.26346 0
0.18946 0.48098 0.085572 0
0.18612 0.46808 0.030182 0
0.16239 0.4694 0.017631 0
0.12055 0.48217 0.038297 0
0.026291 0.48563 -0.018848 0
-0.0019905 0.48906 -0.026167 0
-0.013905 0.48359 -0.057607 0
-0.036203 0.48382 -0.07353 0
-0.058233 0.48391 -0.089824 0
0.11078 0.55876 0.34551 0
0.19157 0.48328 0.09734 0
0.12654 0.48171 0.041686 0
0.09318 0.48862 0.044775 0
0.073981 0.48669 0.022357 0
0.055316 0.48461 -0.00028161 0
0.0037385 0.48877 -0.02226 0
-0.04706 0.4808 -0.093354 0
0.17684 0.47988 0.079673 0
0.13235 0.47971 0.045311 0
0.099004 0.48663 0.048551 0
0.055992 0.48561 0.011831 0
0.032514 0.48634 -0.0029436 0
0.0040312 0.48983 -0.010113 0
-0.0082971 0.48445 -0.041564 0
-0.047495 0.482 -0.081308 0
0.17941 0.49436 0.15659 0
0.1469 0.4703 0.032246 0
0.10463 0.48292 0.052592 0
0.080464 0.48396 0.03863 0
0.056536 0.48486 0.024264 0
0.032848 0.48562 0.0094969 0
0.0094068 0.48624 -0.0056658 0
-0.019144 0.48961 -0.013291 0
-0.02569 0.48127 -0.052818 0
-0.13963 0.51625 0.0060485 0
0.15792 0.5119 0.22116 0
0.18032 0.47971 0.10407 0
0.15267 0.46832 0.035767 0
0.11507 0.47807 0.047897 0
0.086263 0.48199 0.042452 0
0.057386 0.48579 0.036425 0
0.038525 0.48371 0.013521 0
0.0098367 0.48724 0.0065095 0
-0.01356 0.48775 -0.0090431 0
-0.020273 0.47948 -0.048557 0
-0.04833 0.48259 -0.056825 0
-0.059128 0.47691 -0.088629 0
0.11656 0.48052 0.05973 0
0.08758 0.48448 0.054323 0
0.034423 0.48916 0.033583 0
0.010563 0.48985 0.018431 0
-0.013043 0.4904 0.0028813 0
-0.025512 0.48505 -0.028827 0
0.17994 0.46829 0.072531 0
0.15984 0.46686 0.051323 0
0.12672 0.47376 0.055255 0
0.093201 0.48055 0.058442 0
0.039956 0.48526 0.037937 0
0.010916 0.48883 0.030992 0
-0.037549 0.47873 -0.04808 0
-0.082169 0.4789 -0.08108 0
0.17263 0.49152 0.18777 0
0.17923 0.47099 0.10553 0
0.13383 0.47099 0.071216 0
0.061418 0.48726 0.085619 0
0.012183 0.489 0.055793 0
-0.0068638 0.48684 0.032196 0
-0.077509 0.47672 -0.064189 0
0.12402 0.52884 0.3138 0
0.13988 0.46985 0.074647 0
0.10169 0.47945 0.086655 0
0.062822 0.48895 0.097736 0
0.042733 0.48713 0.074771 0
0.018175 0.48796 0.059754 0
-0.016448 0.49428 0.060506 0
-0.030176 0.4892 0.028491 0
-0.043058 0.48396 -0.0035381 0
-0.066279 0.48423 -0.01997 0
-0.08349 0.48152 -0.044481 0
-0.10601 0.48151 -0.061577 0
0.17505 0.47686 0.14728 0
0.17038 0.46465 0.091304 0
0.14998 0.46326 0.06993 0
0.112 0.47281 0.082205 0
0.082678 0.4767 0.076778 0
0.04363 0.48604 0.087366 0
0.01886 0.48691 0.072363 0
-0.035188 0.49101 0.049141 0
-0.089662 0.48351 -0.024226 0
-0.10085 0.47792 -0.056674 0
0.15146 0.49508 0.23322 0
0.15304 0.46286 0.094393 0
0.13267 0.46142 0.072765 0
0.060198 0.47735 0.087249 0
0.025634 0.48378 0.089078 0
0.0008395 0.48457 0.073778 0
-0.018493 0.48246 0.049984 0
-0.047971 0.48573 0.041936 0
-0.060984 0.48056 0.0096366 0
-0.078784 0.47802 -0.014876 0
-0.096022 0.47533 -0.039573 0
-0.12452 0.47805 -0.049296 0
0.17199 0.46873 0.13636 0
0.10969 0.46458 0.071263 0
0.066363 0.47662 0.090936 0
0.036685 0.48033 0.084628 0
0.011976 0.48114 0.069524 0
-0.012479 0.48182 0.054006 0
-0.052617 0.49065 0.062101 0
-0.078647 0.48026 -0.0027961 0
-0.10187 0.48038 -0.019821 0
-0.11305 0.47482 -0.052432 0
0.17407 0.46878 0.14858 0
0.14028 0.46084 0.088321 0
0.077013 0.47135 0.086487 0
0.04746 0.47506 0.080397 0
-0.046773 0.48817 0.066578 0
-0.054924 0.48036 0.026241 0
-0.078644 0.48065 0.0096083 0
-0.10779 0.48356 0.00031347 0
-0.11353 0.47531 -0.0401 0
-0.14808 0.4807 -0.042647 0
0.15443 0.48398 0.22581 0
0.173 0.45626 0.117 0
0.098063 0.46011 0.077471 0
0.059226 0.46923 0.088549 0
0.029561 0.47283 0.082127 0
-0.0052209 0.47903 0.083291 0
-0.019481 0.47424 0.051304 0
-0.048969 0.47745 0.04327 0
-0.072971 0.47781 0.02674 0
-0.10234 0.48075 0.017601 0
-0.12013 0.47811 -0.0075213 0
-0.14327 0.47806 -0.025241 0
0.11773 0.51301 0.32569 0
0.15837 0.45483 0.098813 0
0.040665 0.4701 0.077535 0
0.0060433 0.47633 0.078939 0
-0.048225 0.48025 0.055326 0
-0.066974 0.47793 0.030879 0
-0.096375 0.4809 0.021865 0
-0.12577 0.48375 0.012248 0
0.15578 0.45653 0.11982 0
0.1437 0.44988 0.081035 0
0.085402 0.4575 0.071001 0
0.02182 0.46732 0.066849 0
-0.017985 0.4761 0.075957 0
-0.047829 0.47936 0.06799 0
-0.06139 0.47439 0.03557 0
-0.13171 0.48564 0.032691 0
-0.14384 0.48025 -0.00053537 0
-0.16111 0.47742 -0.026197 0
0.16319 0.46878 0.18834 0
0.12792 0.46115 0.12755 0
0.12056 0.45177 0.079937 0
0.086688 0.4582 0.083193 0
0.05725 0.46185 0.077337 0
0.022791 0.46806 0.079147 0
-0.0069047 0.47147 0.072008 0
-0.060988 0.47521 0.047945 0
-0.079522 0.47284 0.023339 0
-0.1316 0.48649 0.045178 0
-0.14401 0.48115 0.011891 0
0.16544 0.46764 0.20081 0
0.13393 0.45753 0.13137 0
0.11742 0.45353 0.10086 0
0.092506 0.45467 0.08718 0
0.067818 0.45567 0.073081 0
0.033516 0.46186 0.07514 0
-0.0011365 0.46793 0.07642 0
-0.020457 0.46589 0.05261 0
-0.055322 0.47171 0.052594 0
-0.10899 0.47496 0.026738 0
-0.14429 0.48038 0.024603 0
-0.15612 0.47498 -0.0087294 0
0.14956 0.49925 0.33169 0
0.16421 0.47243 0.22157 0
0.11465 0.47295 0.18654 0
0.11925 0.45586 0.11278 0
0.094126 0.45703 0.099125 0
0.073967 0.45542 0.076646 0
0.039679 0.46164 0.078854 0
0.010076 0.46509 0.072066 0
-0.019569 0.4684 0.064678 0
-0.038582 0.46626 0.04063 0
-0.067985 0.46931 0.032232 0
-0.10863 0.47758 0.03889 0
-0.14984 0.48571 0.044532 0
0.16285 0.47467 0.24278 0
0.121 0.47007 0.19031 0
0.1121 0.46098 0.14227 0
0.075153 0.45538 0.088976 0
0.055285 0.45368 0.066247 0
0.020948 0.45977 0.068016 0
-0.018881 0.4684 0.077155 0
-0.027547 0.461 0.036976 0
-0.067723 0.46938 0.044722 0
-0.1029 0.47497 0.043608 0
-0.13263 0.47778 0.033927 0
0.1575 0.47712 0.27323 0
0.14983 0.46598 0.21627 0
0.092319 0.45723 0.13267 0
0.076184 0.45313 0.10165 0
-0.0030024 0.45826 0.065455 0
-0.048394 0.46933 0.082085 0
-0.062219 0.46453 0.049593 0
-0.097405 0.4701 0.048645 0
-0.13287 0.47554 0.046884 0
0.13352 0.46221 0.19806 0
0.10692 0.46364 0.18461 0
0.10294 0.45202 0.12792 0
0.077564 0.45315 0.114 0
0.061988 0.44896 0.082869 0
0.047255 0.44461 0.051671 0
0.0028591 0.45576 0.06967 0
-0.026769 0.45897 0.062171 0
-0.056424 0.46206 0.054069 0
-0.080573 0.4624 0.037443 0
-0.13275 0.47569 0.059495 0
-0.18604 0.48885 0.080109 0
0.16305 0.46233 0.22312 0
0.095946 0.45901 0.15714 0
0.079241 0.45502 0.12608 0
0.058632 0.45347 0.10334 0
0.043463 0.44917 0.072024 0
0.013996 0.45253 0.065344 0
-0.020709 0.45838 0.066204 0
-0.055736 0.4641 0.066272 0
-0.074613 0.46187 0.041707 0
-0.11543 0.46996 0.048305 0
-0.15681 0.47791 0.053882 0
0.16949 0.45877 0.22675 0
0.13831 0.46294 0.22267 0
0.093296 0.4607 0.17826 0
0.085275 0.45165 0.13006 0
0.059857 0.45271 0.11583 0
0.024788 0.4467 0.061331 0
-0.014927 0.45511 0.070608 0
-0.068936 0.45865 0.046345 0
-0.10973 0.46671 0.053133 0
-0.13961 0.46945 0.043364 0
0.11779 0.46197 0.213 0
0.082393 0.45442 0.15094 0
0.065964 0.4504 0.11973 0
0.05521 0.44366 0.08007 0
0.04062 0.43934 0.048802 0
-0.0038842 0.45031 0.066637 0
-0.057702 0.45389 0.0428 0
-0.098321 0.46194 0.049873 0
-0.16955 0.47249 0.045574 0
0.16325 0.46544 0.27812 0
0.15136 0.45713 0.22993 0
0.084072 0.45379 0.16343 0
0.062719 0.45238 0.14069 0
0.051494 0.44574 0.10088 0
0.041417 0.43893 0.06118 0
-0.027708 0.45046 0.06343 0
-0.057373 0.45348 0.055341 0
-0.087051 0.45638 0.046645 0
-0.13374 0.46685 0.060823 0
0.15116 0.47746 0.32577 0
0.15817 0.4567 0.23314 0
0.13512 0.45577 0.21137 0
0.081705 0.45853 0.1841 0
0.064551 0.45463 0.15278 0
0.048246 0.45057 0.12135 0
0.047507 0.43871 0.064848 0
0.013123 0.44456 0.066514 0
-0.021599 0.4503 0.067397 0
-0.051294 0.45336 0.059435 0
-0.081006 0.45629 0.050867 0
-0.12763 0.46679 0.065249 0
0.13738 0.45447 0.22392 0
0.11035 0.45594 0.21055 0
0.066104 0.45346 0.16539 0
0.049515 0.44947 0.13393 0
0.048391 0.43775 0.077317 0
0.028926 0.43598 0.054246 0
-0.015836 0.44677 0.071826 0
-0.050881 0.45238 0.072077 0
-0.11627 0.46069 0.062281 0
-0.15205 0.46592 0.0602 0
0.15854 0.44409 0.21347 0
0.12752 0.44807 0.20923 0
0.10076 0.44945 0.19571 0
0.074215 0.45071 0.18175 0
0.038611 0.45682 0.18432 0
0.050652 0.43783 0.10201 0
0.035644 0.43365 0.070604 0
0.011281 0.43434 0.055597 0
-0.044304 0.44999 0.088982 0
-0.087925 0.44827 0.047819 0
-0.12329 0.45351 0.046363 0
-0.15893 0.45862 0.044089 0
0.15789 0.46409 0.3092 0
0.16129 0.44615 0.22548 0
0.12595 0.45264 0.23005 0
0.094516 0.45655 0.22518 0
0.071911 0.45537 0.20248 0
0.031407 0.46402 0.21356 0
0.033102 0.45008 0.14779 0
0.046685 0.43094 0.06595 0
0.017347 0.43417 0.059388 0
-0.043293 0.45236 0.10118 0
-0.057514 0.44783 0.068657 0
-0.07638 0.44568 0.044075 0
-0.1116 0.45094 0.042873 0
0.15333 0.46779 0.33962 0
0.16777 0.44274 0.22907 0
0.11601 0.45901 0.26893 0
0.078289 0.45199 0.20647 0
0.034522 0.44928 0.16039 0
0.047613 0.43032 0.078361 0
0.033181 0.4261 0.047006 0
-0.032166 0.44667 0.097459 0
-0.067665 0.45218 0.097445 0
-0.059735 0.43759 0.032686 0
-0.10029 0.44535 0.039736 0
0.13752 0.47983 0.41864 0
0.097234 0.45612 0.27172 0
0.014367 0.45995 0.22813 0
0.035327 0.43647 0.12848 0
0.034758 0.42503 0.071795 0
0.0001785 0.43063 0.073268 0
-0.071514 0.45334 0.13096 0
-0.077772 0.43441 0.033174 0
-0.12424 0.44447 0.047639 0
0.14878 0.47632 0.41303 0
0.14917 0.45908 0.32843 0
0.10002 0.45758 0.28401 0
0.061967 0.45061 0.22106 0
0.021126 0.45908 0.23201 0
0.0034782 0.45524 0.19978 0
0.050677 0.4194 0.058848 0
0.021476 0.42255 0.052392 0
-0.065169 0.45262 0.1352 0
-0.071853 0.43379 0.037419 0
-0.11825 0.44387 0.05209 0
-0.13654 0.4415 0.026681 0
0.15176 0.45934 0.36255 0
0.19297 0.41846 0.18942 0
0.11353 0.45091 0.29166 0
0.085338 0.4524 0.27789 0
0.083739 0.43939 0.21169 0
0.0021817 0.45609 0.23371 0
0.038045 0.41435 0.052263 0
-0.073271 0.44461 0.11955 0
-0.10111 0.4356 0.053613 0
0.1365 0.47009 0.42002 0
0.0040716 0.4554 0.24646 0
0.034436 0.42763 0.12968 0
0.0044202 0.4195 0.066193 0
-0.067198 0.44173 0.12408 0
-0.065463 0.43012 0.067003 0
-0.089761 0.43044 0.050285 0
-0.14224 0.4427 0.072449 0
0.14044 0.47183 0.43231 0
0.13672 0.4573 0.35644 0
0.14344 0.43779 0.26335 0
0.094949 0.45114 0.29401 0
0.047659 0.4491 0.24811 0
0.010959 0.45503 0.25031 0
0.0073551 0.44408 0.19254 0
0.049882 0.41135 0.059917 0
0.020672 0.41444 0.053474 0
-0.066064 0.44391 0.1364 0
-0.070098 0.43475 0.087297 0
-0.078208 0.42786 0.046532 0
-0.14176 0.44498 0.084794 0
0.14045 0.47215 0.45414 0
0.14751 0.45082 0.35127 0
0.18973 0.41047 0.1783 0
0.097548 0.44946 0.30675 0
0.063067 0.44043 0.23496 0
0.012907 0.45343 0.26318 0
-0.0053211 0.44974 0.23075 0
0.050738 0.41021 0.072352 0
0.031438 0.40854 0.049352 0
-0.044427 0.43301 0.11639 0
-0.074917 0.4359 0.10813 0
-0.07252 0.42432 0.051159 0
-0.14716 0.44611 0.10556 0
0.1471 0.45289 0.37271 0
0.19219 0.4105 0.19046 0
0.10449 0.44698 0.31047 0
0.075975 0.44845 0.29655 0
0.015108 0.45338 0.27585 0
-0.0034102 0.44975 0.2434 0
0.037282 0.40647 0.053289 0
-0.022824 0.42371 0.095995 0
-0.079426 0.4385 0.12883 0
-0.077562 0.42701 0.071643 0
-0.11312 0.43205 0.070605 0
0.158 0.44746 0.36731 0
0.1276 0.43468 0.27885 0
0.076301 0.43516 0.2427 0
0.026382 0.44807 0.27139 0
0.0032077 0.44683 0.24762 0
0.043298 0.4149 0.11386 0
0.043097 0.4039 0.05726 0
0.003659 0.41162 0.067219 0
-0.073292 0.43579 0.13336 0
-0.077085 0.42677 0.084205 0
-0.11279 0.43181 0.083229 0
0.13948 0.46242 0.43361 0
0.12423 0.45509 0.38448 0
0.17469 0.41058 0.1936 0
0.074457 0.43889 0.26372 0
-0.0038572 0.45297 0.27718 0
0.01126 0.43288 0.18526 0
0.049101 0.40316 0.06097 0
0.019881 0.40619 0.054539 0
-0.040781 0.42326 0.096645 0
-0.087088 0.43316 0.11272 0
-0.084563 0.42169 0.055647 0
0.13964 0.46419 0.45523 0
0.14294 0.44553 0.36124 0
0.19306 0.40129 0.17029 0
0.088531 0.44651 0.32539 0
0.064049 0.44564 0.30246 0
0.05345 0.43766 0.25325 0
0.0075466 0.44812 0.27278 0
0.012925 0.43283 0.19782 0
0.059887 0.39864 0.056438 0
0.03584 0.39934 0.041919 0
-0.029544 0.41868 0.092708 0
-0.097013 0.43795 0.14157 0
0.14235 0.44537 0.38299 0
0.18743 0.40394 0.20048 0
0.10764 0.43504 0.30292 0
0.064374 0.4309 0.24873 0
0.0097777 0.4331 0.21916 0
0.065591 0.39468 0.060472 0
0.036465 0.39771 0.054392 0
-0.013369 0.40992 0.080688 0
-0.069726 0.42437 0.11378 0
-0.10573 0.42942 0.11309 0
0.15356 0.44265 0.37724 0
0.11611 0.44895 0.382 0
0.16345 0.40731 0.20009 0
0.066896 0.43287 0.26099 0
0.012113 0.44788 0.29817 0
0.011869 0.43514 0.23149 0
0.057167 0.40141 0.08935 0
0.047485 0.39521 0.049701 0
0.0081762 0.4028 0.059776 0
-0.052862 0.41959 0.10157 0
-0.13193 0.44328 0.16583 0
0.1458 0.44697 0.41703 0
0.11545 0.44878 0.4038 0
0.18585 0.3941 0.16819 0
0.06912 0.43075 0.27379 0
0.063016 0.39743 0.093394 0
0.053168 0.39132 0.053771 0
0.024086 0.39427 0.047446 0
-0.015524 0.40171 0.056926 0
-0.13117 0.4413 0.17888 0
0.13422 0.4389 0.38061 0
0.19215 0.39134 0.17151 0
0.10816 0.42416 0.28273 0
0.058682 0.4368 0.31265 0
0.030147 0.43807 0.29797 0
-0.0027458 0.44149 0.29139 0
0.02988 0.3917 0.051454 0
-0.004483 0.39684 0.05289 0
-0.12482 0.43848 0.18363 0
-0.13465 0.43199 0.14176 0
0.14134 0.43477 0.38435 0
0.10368 0.4409 0.38891 0
0.17233 0.38909 0.16274 0
0.058839 0.41054 0.19245 0
0.046594 0.40477 0.1523 0
0.064753 0.38531 0.061603 0
0.040642 0.386 0.047192 0
-0.033433 0.39839 0.05794 0
-0.14494 0.43507 0.17081 0
0.15626 0.42941 0.36965 0
0.10332 0.44438 0.41025 0
0.18285 0.38608 0.15702 0
0.024641 0.42997 0.27373 0
0.046606 0.38538 0.050888 0
0.012406 0.39051 0.052723 0
-0.027414 0.3978 0.06196 0
-0.14385 0.43673 0.18342 0
0.1107 0.44172 0.41394 0
0.18513 0.38601 0.16916 0
0.10894 0.4139 0.26248 0
0.068293 0.42186 0.27491 0
0.017955 0.4342 0.30369 0
0.077914 0.39285 0.12556 0
0.067089 0.38701 0.085896 0
0.023367 0.38616 0.048417 0
-0.011017 0.39118 0.049719 0
-0.14282 0.43668 0.19627 0
0.1371 0.42641 0.37293 0
0.11153 0.42586 0.3507 0
0.16533 0.38352 0.16033 0
0.062032 0.42433 0.30518 0
0.020267 0.43218 0.31661 0
0.079335 0.39129 0.13805 0
0.063114 0.37742 0.050303 0
0.029077 0.38252 0.052539 0
-0.13651 0.43262 0.20121 0
0.090994 0.43848 0.4168 0
0.17577 0.37907 0.15481 0
0.060436 0.42621 0.32657 0
0.044948 0.4209 0.28585 0
0.090138 0.38685 0.13315 0
0.064085 0.37753 0.062508 0
0.039971 0.37821 0.0481 0
0.0057449 0.38321 0.049806 0
-0.039466 0.39255 0.067064 0
-0.14575 0.42624 0.17191 0
0.15545 0.42056 0.37074 0
0.18625 0.37597 0.14907 0
0.10566 0.40557 0.25107 0
0.056323 0.41775 0.28086 0
0.055605 0.40574 0.21438 0
0.075744 0.38474 0.11421 0
0.016853 0.38026 0.045379 0
-0.038712 0.39404 0.079315 0
-0.14468 0.4277 0.18455 0
0.12869 0.42248 0.39189 0
0.08282 0.43265 0.41408 0
0.17302 0.37188 0.14349 0
0.061302 0.41617 0.30617 0
0.019515 0.42386 0.31763 0
0.10179 0.37294 0.095921 0
0.02846 0.37519 0.053376 0
-0.005935 0.38009 0.054854 0
-0.13726 0.42428 0.20223 0
0.14351 0.41469 0.37754 0
0.09014 0.42903 0.41796 0
0.18333 0.36669 0.138 0
0.048577 0.40969 0.27823 0
0.10319 0.3721 0.10823 0
0.063414 0.36943 0.063417 0
0.039298 0.37009 0.049012 0
-0.029518 0.37977 0.051682 0
0.15843 0.40957 0.36277 0
0.093797 0.43024 0.43042 0
0.15704 0.38294 0.21211 0
0.15152 0.37356 0.15523 0
0.059745 0.37313 0.083951 0
0.045268 0.3695 0.0527 0
0.016187 0.37225 0.046281 0
-0.039419 0.38572 0.080272 0
0.15073 0.41537 0.40234 0
0.074694 0.42705 0.41128 0
0.16621 0.36706 0.14095 0
0.066743 0.40434 0.277 0
0.070557 0.36884 0.079222 0
0.056098 0.36525 0.048116 0
-0.01239 0.37496 0.051579 0
0.12395 0.41434 0.40209 0
0.077892 0.42426 0.42425 0
0.1723 0.36292 0.14446 0
0.12521 0.37458 0.17577 0
0.027567 0.40938 0.30146 0
0.10107 0.36395 0.096905 0
0.061794 0.36127 0.052093 0
0.027726 0.36614 0.054371 0
-0.0066854 0.37091 0.055872 0
0.14269 0.40504 0.37866 0
0.085303 0.4211 0.42808 0
0.13316 0.38312 0.24535 0
0.14013 0.36769 0.16173 0
0.052203 0.39806 0.27061 0
0.082347 0.36221 0.086879 0
0.062732 0.36086 0.064344 0
0.038613 0.3615 0.049943 0
0.0043554 0.36626 0.05169 0
-0.030234 0.37094 0.052654 0
0.08113 0.42626 0.45851 0
0.1593 0.36061 0.13855 0
0.040426 0.39408 0.2424 0
0.049585 0.35869 0.045244 0
0.015486 0.36347 0.047233 0
-0.029556 0.37239 0.064862 0
0.065682 0.42051 0.43034 0
0.1655 0.35796 0.14192 0
0.1226 0.36735 0.1643 0
-0.0026127 0.41408 0.34178 0
0.089795 0.36097 0.10266 0
0.055388 0.35619 0.04908 0
0.021298 0.36096 0.051224 0
-0.013133 0.36564 0.052588 0
0.12161 0.37876 0.25166 0
0.13748 0.35947 0.15039 0
0.091129 0.35937 0.11506 0
0.061131 0.35263 0.052996 0
0.032134 0.3553 0.046939 0
-0.002146 0.35995 0.048554 0
-0.047516 0.36867 0.065719 0
0.14172 0.36109 0.17463 0
0.083171 0.35584 0.099765 0
0.073038 0.35043 0.060238 0
0.049006 0.35108 0.046031 0
0.014894 0.35575 0.048039 0
-0.019555 0.36033 0.049266 0
0.06068 0.41109 0.44055 0
0.11001 0.37438 0.25789 0
0.14369 0.34736 0.12149 0
0.10503 0.35439 0.13455 0
0.069106 0.34997 0.081196 0
0.054671 0.34657 0.050058 0
-0.013885 0.35575 0.053611 0
-0.043234 0.35816 0.046058 0
0.1252 0.36917 0.24359 0
0.14993 0.34627 0.12476 0
0.10685 0.35531 0.14669 0
0.085952 0.3542 0.12441 0
0.065554 0.34355 0.045251 0
0.036699 0.34616 0.039294 0
-0.0026855 0.35275 0.049289 0
-0.037306 0.35721 0.050134 0
0.12187 0.34697 0.13298 0
0.091978 0.34988 0.12826 0
0.076283 0.34671 0.097226 0
0.07125 0.33941 0.049155 0
0.0082271 0.34653 0.04521 0
-0.031599 0.35297 0.054512 0
0.068678 0.38525 0.32571 0
0.14146 0.34077 0.11001 0
0.082486 0.34651 0.1007 0
0.048337 0.34186 0.046944 0
0.014208 0.34641 0.048974 0
-0.025573 0.35287 0.05845 0
-0.038655 0.34919 0.026286 0
0.12202 0.35983 0.23222 0
0.14312 0.33933 0.12227 0
0.10897 0.34421 0.12666 0
0.09316 0.34112 0.095843 0
0.07336 0.33989 0.073462 0
0.0541 0.33855 0.050837 0
0.025113 0.34108 0.044675 0
-0.014484 0.3475 0.054428 0
-0.04384 0.34985 0.046885 0
0.12863 0.3361 0.10403 0
0.064914 0.33445 0.046125 0
0.030951 0.33896 0.048553 0
-0.003357 0.34338 0.050205 0
-0.043386 0.3497 0.059256 0
0.15183 0.34657 0.20366 0
0.13022 0.33513 0.11627 0
0.10985 0.33407 0.094396 0
0.070713 0.33163 0.049889 0
0.0024571 0.34053 0.054278 0
-0.032176 0.34485 0.055301 0
0.1319 0.34696 0.19409 0
0.048124 0.37315 0.29475 0
0.11601 0.33342 0.097759 0
0.086625 0.33617 0.092905 0
0.047764 0.33359 0.047727 0
0.013621 0.33801 0.049776 0
-0.020858 0.34235 0.051044 0
-0.039252 0.34072 0.027101 0
0.14252 0.34164 0.18876 0
0.059328 0.36757 0.28991 0
0.11747 0.33211 0.11003 0
0.09729 0.33101 0.087989 0
0.067963 0.33366 0.082758 0
0.053548 0.33043 0.051593 0
0.024553 0.33289 0.045441 0
-0.015063 0.33915 0.055221 0
-0.049862 0.34338 0.055854 0
0.03808 0.36558 0.27933 0
0.10328 0.32834 0.091588 0
0.064343 0.32589 0.046908 0
0.030365 0.33027 0.049356 0
-0.0039575 0.33458 0.051027 0
0.15117 0.33681 0.20457 0
0.040347 0.36333 0.2921 0
0.10923 0.32467 0.095245 0
0.070102 0.32229 0.050727 0
0.041202 0.32475 0.044924 0
0.0070331 0.32903 0.046844 0
-0.032835 0.33512 0.056202 0
0.042934 0.36431 0.30457 0
0.081257 0.32845 0.10238 0
0.066293 0.32535 0.071303 0
0.047137 0.32405 0.048587 0
0.012978 0.32834 0.050658 0
-0.021517 0.33254 0.051946 0
0.14613 0.33041 0.18074 0
0.016953 0.36404 0.3025 0
0.087312 0.32568 0.10605 0
0.072215 0.32264 0.075032 0
0.057961 0.31949 0.043941 0
0.023959 0.32376 0.046256 0
-0.015679 0.32983 0.056065 0
-0.050492 0.33394 0.056717 0
0.15066 0.32898 0.20526 0
0.030831 0.35852 0.31041 0
0.06983 0.3234 0.10812 0
0.069636 0.31481 0.051368 0
0.04073 0.3172 0.045574 0
0.0065479 0.32137 0.047511 0
0.14782 0.32209 0.16027 0
0.037937 0.35785 0.31412 0
0.014078 0.35698 0.29055 0
0.046679 0.31671 0.049218 0
0.012508 0.32089 0.051304 0
-0.021999 0.325 0.052608 0
0.14557 0.32145 0.18151 0
0.011735 0.35593 0.31213 0
0.082064 0.31866 0.11544 0
0.071678 0.31389 0.075771 0
0.057434 0.31083 0.044667 0
0.023418 0.31497 0.047001 0
-0.010938 0.31904 0.048556 0
-0.045619 0.32303 0.049323 0
0.16261 0.31495 0.17924 0
0.030204 0.34898 0.31127 0
0.074092 0.31304 0.10023 0
0.04023 0.30881 0.046263 0
0.0060349 0.31286 0.048218 0
-0.039246 0.32044 0.06586 0
0.14731 0.31358 0.16097 0
0.041749 0.34656 0.30619 0
0.075535 0.31431 0.11235 0
0.070225 0.30778 0.064095 0
0.046182 0.30833 0.049904 0
0.011998 0.3124 0.052008 0
-0.022522 0.31639 0.053329 0
0.14094 0.31665 0.19093 0
0.011261 0.34862 0.31278 0
0.081679 0.31215 0.11597 0
0.071304 0.30748 0.076288 0
0.052058 0.30627 0.053644 0
0.017883 0.31033 0.0559 0
-0.011326 0.31252 0.04909 0
-0.046016 0.31641 0.04987 0
0.1431 0.3141 0.20334 0
0.018123 0.34391 0.31692 0
0.072361 0.30516 0.088655 0
0.028796 0.30448 0.051517 0
-0.040257 0.31229 0.054181 0
0.15796 0.30822 0.18884 0
0.025136 0.34129 0.32085 0
0.0012286 0.34044 0.29709 0
0.068684 0.29825 0.052684 0
0.034675 0.30226 0.055339 0
0.00031927 0.3062 0.057219 0
-0.028984 0.3083 0.050069 0
0.15111 0.30329 0.15278 0
0.003672 0.34141 0.30964 0
0.075044 0.30571 0.11303 0
0.064854 0.30112 0.073288 0
0.0063128 0.3056 0.061041 0
-0.02302 0.30772 0.054018 0
0.14459 0.30449 0.18286 0
0.005989 0.33875 0.3225 0
0.081101 0.30184 0.11677 0
0.075608 0.29561 0.068499 0
0.017311 0.30007 0.056692 0
-0.017218 0.30391 0.058188 0
0.14679 0.3031 0.19515 0
0.012983 0.33535 0.32653 0
0.07187 0.29611 0.089335 0
0.018049 0.29887 0.06902 0
-0.0060687 0.29927 0.053939 0
-0.035348 0.3013 0.04667 0
0.15334 0.30159 0.1984 0
-0.0085976 0.33458 0.31524 0
0.024054 0.29751 0.072817 0
-0.0053694 0.29963 0.066185 0
-0.029439 0.29997 0.050699 0
0.14641 0.29726 0.16223 0
0.064446 0.29346 0.073854 0
0.025083 0.29907 0.084956 0
0.00068798 0.29952 0.069992 0
-0.03415 0.30328 0.071159 0
0.14415 0.29614 0.18348 0
0.052359 0.30355 0.16933 0
0.070322 0.28917 0.077652 0
0.036022 0.29304 0.080452 0
0.0065417 0.29517 0.07408 0
-0.028295 0.2989 0.075405 0
0.11775 0.29515 0.20411 0
0.023928 0.32032 0.32252 0
0.018427 0.28869 0.081999 0
-0.011153 0.29074 0.075286 0
-0.03537 0.29106 0.059708 0
0.15016 0.28477 0.1541 0
0.039714 0.28321 0.060327 0
-0.0050808 0.29017 0.079147 0
-0.024007 0.28887 0.055391 0
0.14368 0.28666 0.18413 0
0.079626 0.27669 0.061116 0
0.050641 0.27881 0.055617 0
0.011249 0.2841 0.066331 0
-0.023452 0.28769 0.067767 0
0.15016 0.28465 0.18741 0
0.085575 0.27484 0.064658 0
0.061555 0.27535 0.050772 0
0.027499 0.27901 0.053325 0
-0.017475 0.28582 0.071768 0
-0.025325 0.28128 0.031371 0
0.14343 0.27841 0.15138 0
0.064696 0.2894 0.17738 0
0.077118 0.27736 0.094078 0
0.067445 0.27313 0.054416 0
0.038502 0.27518 0.04867 0
-0.00099383 0.28035 0.05905 0
-0.030317 0.28225 0.051927 0
0.14552 0.27913 0.16347 0
0.0712 0.28856 0.18093 0
0.07833 0.27079 0.049376 0
0.049514 0.27285 0.043846 0
0.015429 0.27643 0.046108 0
-0.024355 0.28154 0.055878 0
0.14339 0.28027 0.18455 0
0.073092 0.28812 0.19327 0
0.075185 0.27938 0.1271 0
0.079351 0.27052 0.061504 0
0.05539 0.27101 0.047515 0
0.021315 0.27459 0.049928 0
-0.0077735 0.27651 0.043248 0
0.14739 0.26806 0.14304 0
0.099511 0.27644 0.17421 0
0.087545 0.27255 0.13439 0
0.086349 0.26549 0.077352 0
0.048342 0.26337 0.032287 0
0.0091259 0.26835 0.042873 0
-0.019911 0.27019 0.035948 0
-0.043423 0.27041 0.020248 0
0.093866 0.27185 0.13782 0
0.087653 0.26636 0.089438 0
0.087814 0.25923 0.032745 0
0.064363 0.25968 0.01892 0
0.020272 0.2662 0.03825 0
-0.014013 0.26959 0.039841 0
-0.043106 0.27137 0.032442 0
0.14938 0.26682 0.18851 0
0.097262 0.26835 0.16245 0
0.090329 0.26304 0.11395 0
0.01352 0.25885 0.022797 0
-0.026087 0.26362 0.032446 0
0.13837 0.26298 0.16127 0
0.094659 0.26963 0.18351 0
0.081222 0.25903 0.08644 0
0.071725 0.25506 0.046831 0
0.048032 0.25548 0.032728 0
0.019324 0.25732 0.026591 0
-0.014833 0.26059 0.028139 0
-0.038201 0.26079 0.012537 0
0.096751 0.27091 0.1957 0
0.072759 0.25643 0.058867 0
0.059007 0.25388 0.027806 0
-0.0089496 0.26051 0.031976 0
-0.04342 0.26373 0.032886 0
0.13363 0.25407 0.17071 0
0.08085 0.24886 0.086973 0
0.066399 0.24649 0.055904 0
0.047673 0.24546 0.033244 0
0.013691 0.24865 0.035495 0
-0.026039 0.2532 0.045251 0
-0.049699 0.2534 0.029457 0
0.1358 0.25495 0.18283 0
0.10079 0.25849 0.18748 0
0.093151 0.25349 0.13883 0
0.072386 0.24604 0.059403 0
0.053562 0.24503 0.036824 0
0.024821 0.2468 0.03082 0
-0.014717 0.25136 0.040844 0
-0.043822 0.25301 0.033461 0
0.094841 0.25241 0.15109 0
0.068536 0.24648 0.080181 0
0.025442 0.24587 0.04302 0
-0.0035181 0.24757 0.036459 0
-0.037997 0.25063 0.03754 0
0.14018 0.24577 0.14108 0
0.092096 0.25338 0.17213 0
0.085039 0.24841 0.1235 0
0.050257 0.2452 0.06968 0
0.031332 0.24417 0.046758 0
-0.037583 0.25034 0.049821 0
0.041322 0.24679 0.099044 0
0.032092 0.24303 0.058983 0
-0.0023431 0.24613 0.06097 0
-0.03169 0.24777 0.053878 0
0.13555 0.24753 0.1832 0
0.10053 0.25097 0.18786 0
0.097529 0.24475 0.13044 0
0.077168 0.24393 0.1081 0
0.052415 0.24441 0.094091 0
0.043162 0.24067 0.054155 0
-0.020345 0.24543 0.049515 0
0.14631 0.24385 0.17755 0
0.053614 0.24354 0.10634 0
0.038991 0.24123 0.074878 0
-0.01444 0.24324 0.053473 0
0.13549 0.23771 0.15039 0
0.054846 0.24075 0.1187 0
0.039938 0.23851 0.087203 0
-0.013885 0.24051 0.065852 0
-0.043352 0.24209 0.058543 0
0.12874 0.23924 0.18038 0
0.090963 0.23652 0.12744 0
0.061051 0.23835 0.12233 0
0.026686 0.23519 0.067873 0
-0.0079083 0.23816 0.069782 0
-0.031986 0.23841 0.054308 0
0.13095 0.24005 0.19252 0
0.1092 0.23941 0.17059 0
0.097261 0.23606 0.13083 0
0.062541 0.23923 0.13453 0
0.022513 0.24367 0.14604 0
0.022548 0.23744 0.088549 0
-0.017572 0.24175 0.098841 0
-0.020616 0.23669 0.04991 0
0.098917 0.23476 0.14307 0
0.068808 0.23661 0.13813 0
0.033731 0.2397 0.14121 0
0.028618 0.23487 0.092326 0
0.0041472 0.23521 0.077483 0
-0.036113 0.23943 0.087254 0
0.08918 0.22817 0.11561 0
0.049704 0.23249 0.12774 0
0.010117 0.23068 0.081415 0
-0.046052 0.23869 0.11649 0
0.097999 0.23385 0.17638 0
0.056016 0.23236 0.1313 0
0.035846 0.23151 0.10835 0
0.016227 0.23059 0.08514 0
-0.034507 0.23733 0.11206 0
0.13929 0.22644 0.17512 0
0.11338 0.22707 0.16219 0
0.022187 0.23235 0.14652 0
0.012057 0.22895 0.10602 0
-0.023135 0.23178 0.10773 0
-0.047869 0.23203 0.09199 0
0.078037 0.2237 0.12113 0
0.033438 0.22913 0.14164 0
0.023285 0.22577 0.10127 0
-0.0013369 0.22609 0.086338 0
-0.047116 0.23136 0.10439 0
0.1262 0.22247 0.16887 0
0.1004 0.22306 0.15571 0
0.044616 0.22527 0.13671 0
0.024397 0.22443 0.11359 0
0.0047326 0.22353 0.090203 0
-0.046289 0.22999 0.11684 0
0.12831 0.22315 0.18102 0
0.090544 0.22061 0.12806 0
0.055789 0.22353 0.13163 0
0.030637 0.22394 0.11726 0
-0.040033 0.22952 0.12082 0
0.095247 0.22442 0.19788 0
0.071641 0.2182 0.11788 0
0.02694 0.22347 0.13821 0
0.01697 0.22018 0.097782 0
-0.023328 0.22413 0.10802 0
-0.053458 0.22559 0.10061 0
0.077866 0.21627 0.12139 0
0.038163 0.2203 0.13329 0
0.018046 0.21947 0.11008 0
-0.0067255 0.21977 0.095057 0
-0.052666 0.22485 0.11303 0
0.044444 0.21781 0.13698 0
0.024227 0.217 0.11384 0
0.0045643 0.21612 0.090458 0
-0.062442 0.22593 0.14226 0
0.13254 0.21557 0.17232 0
0.097619 0.21851 0.17695 0
0.055643 0.21711 0.13186 0
0.03049 0.21751 0.11749 0
0.010726 0.21665 0.094185 0
-0.034908 0.22171 0.11266 0
0.11751 0.21012 0.15387 0
0.036655 0.21264 0.12127 0
0.006588 0.21415 0.1151 0
-0.023518 0.2156 0.10831 0
-0.053652 0.21699 0.10091 0
0.11498 0.21001 0.17495 0
0.077692 0.20756 0.12166 0
0.028148 0.21371 0.15085 0
-0.05823 0.21691 0.1217 0
0.12145 0.20707 0.1783 0
0.083923 0.20468 0.12517 0
0.049135 0.20736 0.12861 0
0.024042 0.20772 0.11413 0
-0.00079563 0.20801 0.099219 0
-0.057329 0.21508 0.1342 0
0.088333 0.20965 0.19498 0
0.055427 0.20608 0.13219 0
0.025281 0.20758 0.12642 0
0.010511 0.20563 0.094519 0
-0.035143 0.21041 0.11302 0
0.10835 0.20236 0.17187 0
0.09645 0.19955 0.13207 0
0.066493 0.20107 0.12712 0
0.036472 0.20254 0.12156 0
0.016611 0.20176 0.098339 0
-0.028967 0.20644 0.11705 0
-0.059253 0.20776 0.10956 0
0.11035 0.2008 0.18412 0
0.072759 0.19847 0.13065 0
0.027958 0.2032 0.15114 0
0.017683 0.20027 0.11064 0
-0.017528 0.20272 0.11255 0
-0.063798 0.20731 0.13039 0
0.12128 0.19671 0.17856 0
0.048968 0.19697 0.12888 0
0.023874 0.1973 0.1144 0
-0.0061479 0.19865 0.10798 0
-0.052195 0.20318 0.12612 0
0.097243 0.19778 0.17754 0
0.090058 0.19398 0.12883 0
0.06012 0.19544 0.12375 0
0.020129 0.199 0.13526 0
0.010361 0.19608 0.094762 0
-0.035309 0.2006 0.11329 0
0.10372 0.19439 0.18096 0
0.066367 0.19211 0.12733 0
0.031382 0.19456 0.1304 0
0.016482 0.19276 0.098552 0
-0.034368 0.19826 0.12572 0
-0.059401 0.19846 0.1098 0
0.10577 0.19319 0.19321 0
0.077415 0.1889 0.12211 0
0.047518 0.19029 0.11678 0
0.037854 0.18748 0.076621 0
-0.022876 0.19501 0.12122 0
-0.0532 0.19625 0.11387 0
0.11676 0.18972 0.18765 0
0.095212 0.18917 0.16551 0
0.048866 0.18894 0.12905 0
0.043914 0.18515 0.080261 0
-0.0010694 0.18951 0.099667 0
-0.046981 0.19383 0.11792 0
0.060018 0.18706 0.12393 0
0.045008 0.18535 0.092447 0
0.025702 0.18459 0.069403 0
-0.040723 0.19299 0.1219 0
0.075907 0.18308 0.11004 0
0.061065 0.18139 0.078798 0
0.047072 0.17965 0.047479 0
-0.034462 0.19099 0.12588 0
-0.04868 0.18915 0.093256 0
0.093314 0.18229 0.15343 0
0.053003 0.17638 0.051083 0
0.013598 0.17958 0.062109 0
-0.04793 0.1867 0.10567 0
0.078113 0.17519 0.07717 0
0.064001 0.17352 0.046056 0
0.035169 0.17474 0.040361 0
-0.015055 0.17982 0.067673 0
0.079346 0.17548 0.089291 0
0.059946 0.1748 0.066756 0
0.051393 0.17213 0.026946 0
0.0068861 0.17622 0.046239 0
-0.082114 0.1881 0.13101 0
0.099056 0.17923 0.19013 0
0.080653 0.17335 0.10146 0
0.05213 0.17008 0.039056 0
0.018082 0.1722 0.041561 0
-0.021712 0.17523 0.05164 0
0.079089 0.16172 0.020389 0
0.035127 0.16561 0.040461 0
0.0062445 0.16671 0.034178 0
-0.017187 0.16683 0.018988 0
0.098713 0.16272 0.05461 0
0.079922 0.16207 0.032418 0
0.056515 0.1623 0.018513 0
-0.016804 0.16721 0.031163 0
0.096145 0.16517 0.13263 0
0.085808 0.15862 0.035851 0
0.062341 0.15885 0.022048 0
0.028583 0.16082 0.024746 0
-0.010927 0.16366 0.035027 0
-0.039932 0.16466 0.027801 0
0.096643 0.15561 0.030592 0
0.068185 0.15672 0.025547 0
0.039669 0.1578 0.019917 0
-0.0050283 0.16148 0.03885 0
-0.039588 0.16336 0.040041 0
0.10253 0.15315 0.033938 0
0.079092 0.15338 0.020428 0
0.0507 0.15444 0.015013 0
0.011574 0.1572 0.02583 0
-0.022689 0.15906 0.027364 0
0.087874 0.16446 0.1958 0
0.099231 0.15795 0.11174 0
0.079924 0.15334 0.032459 0
0.051359 0.1544 0.02708 0
-0.022271 0.15901 0.039566 0
-0.034598 0.15736 0.0073972 0
0.096138 0.15742 0.13268 0
0.090788 0.15036 0.027239 0
0.06235 0.15142 0.022074 0
0.028587 0.15329 0.024779 0
-0.005515 0.15512 0.026708 0
-0.045501 0.15776 0.036116 0
0.07912 0.14529 0.020432 0
0.045529 0.14709 0.023526 0
0.016935 0.14805 0.017438 0
-0.028169 0.15142 0.035709 0
-0.040352 0.14985 0.0034812 0
0.096972 0.15398 0.17812 0
0.084963 0.14432 0.023846 0
0.056545 0.14531 0.01856 0
0.022766 0.14708 0.021125 0
-0.011349 0.14881 0.022911 0
-0.045782 0.15051 0.023908 0
0.096408 0.14295 0.087522 0
0.096713 0.13931 0.030583 0
0.068249 0.14028 0.025548 0
0.039726 0.14121 0.019927 0
0.0057734 0.14289 0.022108 0
-0.034035 0.14532 0.031802 0
0.09772 0.13697 0.04259 0
0.079182 0.1364 0.020397 0
0.045584 0.13808 0.0235 0
0.016987 0.13896 0.017417 0
-0.022635 0.14133 0.027382 0
-0.040306 0.14063 0.0034688 0
0.092449 0.14617 0.18699 0
0.098795 0.13766 0.054631 0
0.080008 0.13711 0.032433 0
0.056599 0.13728 0.018531 0
0.022814 0.13893 0.021103 0
-0.011306 0.14055 0.022897 0
-0.051347 0.14289 0.03215 0
0.099031 0.14289 0.19034 0
0.10088 0.13877 0.12387 0
0.090899 0.13333 0.027181 0
0.062455 0.13424 0.022025 0
0.033954 0.13512 0.016284 0
-1.1903e-05 0.1367 0.018322 0
-0.039869 0.13899 0.02785 0
0.09973 0.13589 0.15702 0
0.074208 0.12948 0.028936 0
0.045657 0.13033 0.023445 0
0.017057 0.13115 0.017365 0
-0.022571 0.13336 0.02734 0
-0.0346 0.13198 -0.004802 0
0.10162 0.13548 0.16921 0
0.099365 0.13225 0.11169 0
0.085109 0.12775 0.02374 0
0.056685 0.1286 0.018464 0
0.022895 0.13013 0.021043 0
-0.01123 0.13162 0.022844 0
-0.045674 0.13308 0.023856 0
0.094577 0.13513 0.1992 0
0.10095 0.13061 0.12382 0
0.090989 0.12553 0.027105 0
0.062541 0.12637 0.021953 0
0.034038 0.12718 0.016215 0
6.7333e-05 0.12865 0.01826 0
-0.045365 0.13147 0.036074 0
0.074326 0.12047 0.028828 0
0.045773 0.12124 0.023342 0
0.01717 0.12199 0.017266 0
-0.022466 0.12402 0.027252 0
-0.034491 0.12274 -0.0048967 0
0.097147 0.12787 0.17802 0
0.099458 0.12421 0.11161 0
0.085215 0.12002 0.023643 0
0.051622 0.12146 0.026907 0
-0.011136 0.1236 0.022763 0
-0.051191 0.12561 0.032035 0
0.094683 0.12516 0.19911 0
0.10107 0.12101 0.12371 0
0.091125 0.11635 0.026975 0
0.023611 0.11911 0.033033 0
0.00019243 0.11919 0.018146 0
-0.04525 0.12176 0.035973 0
0.098046 0.1125 0.042293 0
0.074455 0.11264 0.028701 0
0.011941 0.11464 0.02557 0
-0.022348 0.1159 0.02714 0
-0.040014 0.11532 0.0032189 0
0.097266 0.11884 0.17791 0
0.099588 0.11547 0.11149 0
0.099122 0.11266 0.054335 0
0.085357 0.11161 0.023502 0
0.046591 0.11352 0.035312 0
0.017811 0.11421 0.029273 0
-0.011006 0.11487 0.022638 0
-0.051067 0.1167 0.031919 0
0.094781 0.11797 0.19902 0
0.10118 0.11409 0.1236 0
0.091244 0.10973 0.026855 0
0.05766 0.11103 0.030273 0
0.029003 0.11171 0.024451 0
-0.045144 0.11475 0.035872 0
0.098194 0.10494 0.042139 0
0.074603 0.10506 0.028548 0
0.040837 0.10627 0.031588 0
0.0013721 0.108 0.04228 0
-0.022209 0.10804 0.027 0
-0.039875 0.1075 0.0030777 0
0.099731 0.10756 0.11134 0
0.085509 0.10399 0.023343 0
0.051908 0.10519 0.026619 0
0.0020012 0.10802 0.054476 0
-0.010863 0.10697 0.022493 0
-0.050929 0.10864 0.031781 0
0.094926 0.10929 0.19888 0
0.096659 0.10628 0.13227 0
0.095646 0.10376 0.074936 0
0.086428 0.10228 0.035333 0
0.057823 0.10292 0.030103 0
0.0186 0.10461 0.041233 0
-0.010396 0.10519 0.034634 0
-0.044993 0.10629 0.035719 0
0.09302 0.10183 0.18648 0
0.094601 0.096702 0.062686 0
0.041763 0.097384 0.043496 0
-0.0031296 0.099424 0.06273 0
