# .PCD v.6 - Point Cloud Data file format
FIELDS x y z
SIZE 4 4 4
TYPE F F F
COUNT 1 1 1
WIDTH 1683
HEIGHT 1
POINTS 1683
DATA ascii
0.016481 -0.045274 0.066348
-0.015229 -0.044614 0.066486
-0.014876 -0.044192 0.066734
0.016441 -0.044722 0.066482
0.01801 -0.044688 0.066732
-0.016168 -0.04311 0.066226
-0.015853 -0.043138 0.066396
-0.014517 -0.043192 0.066502
0.015709 -0.043202 0.066956
0.016947 -0.043206 0.066488
0.017554 -0.043172 0.066576
-0.01827 -0.042356 0.066432
-0.017856 -0.042162 0.066498
-0.016345 -0.042968 0.066476
-0.015825 -0.04292 0.066138
0.015975 -0.042952 0.066752
0.017595 -0.04279 0.066286
0.019384 -0.042314 0.066546
-0.018169 -0.041832 0.066536
-0.017734 -0.041912 0.066538
0.017891 -0.041312 0.066492
0.018911 -0.041342 0.066882
0.019469 -0.04181 0.066496
0.020394 -0.04139 0.066434
-0.019138 -0.040998 0.066808
-0.018732 -0.040404 0.066306
0.020424 -0.040292 0.066452
0.021136 -0.040432 0.066542
0.022024 -0.04055 0.066366
-0.01912 -0.03989 0.066456
-0.0188 -0.039918 0.066942
0.021256 -0.039648 0.066376
-0.018608 -0.03845 0.066678
0.020512 -0.03813 0.066412
-0.020028 -0.037062 0.066608
-0.019241 -0.037722 0.066396
-0.018806 -0.03763 0.06641
0.02036 -0.037584 0.066616
0.021284 -0.037432 0.06662
-0.019359 -0.036256 0.066018
0.022196 -0.036902 0.066826
-0.019212 -0.035442 0.066456
-0.018696 -0.035334 0.066496
0.020534 -0.035712 0.066158
0.021314 -0.035194 0.06629
-0.01923 -0.034718 0.066236
-0.018569 -0.034694 0.066636
0.020666 -0.034544 0.066502
0.021692 -0.034908 0.066512
-0.019076 -0.033004 0.066612
-0.018714 -0.03311 0.066296
0.02068 -0.03335 0.06695
-0.02013 -0.032252 0.06637
-0.01969 -0.032526 0.066542
-0.018867 -0.032516 0.066368
0.020766 -0.032198 0.066812
0.021394 -0.032498 0.066502
0.023772 -0.032924 0.066644
-0.019061 -0.03174 0.0666
-0.018462 -0.03192 0.066974
0.020716 -0.031416 0.066582
-0.019172 -0.030302 0.066298
-0.018715 -0.030396 0.066544
0.021548 -0.03022 0.066452
-0.019603 -0.029544 0.06617
-0.018803 -0.02956 0.066386
0.02145 -0.029504 0.066384
-0.018768 -0.028176 0.066712
0.023458 -0.028606 0.066548
-0.01908 -0.02768 0.066402
-0.018841 -0.027416 0.06632
0.020452 -0.027588 0.066282
0.021498 -0.027532 0.066526
-0.019956 -0.02677 0.066526
-0.018977 -0.026726 0.066562
0.021228 -0.026896 0.066378
-0.019179 -0.025372 0.066654
-0.018825 -0.025194 0.066332
0.02143 -0.025128 0.06648
0.022234 -0.025006 0.06649
-0.019147 -0.024708 0.066302
-0.018713 -0.024654 0.066146
0.020446 -0.024362 0.066406
0.021626 -0.024722 0.066398
0.022012 -0.024914 0.066878
-0.019377 -0.023662 0.066302
0.02077 -0.023592 0.06677
0.021646 -0.023048 0.066538
0.022222 -0.023932 0.066136
-0.020062 -0.022524 0.066302
-0.019217 -0.022376 0.06643
-0.018892 -0.022656 0.066048
0.020754 -0.02245 0.066546
0.021664 -0.022428 0.066304
-0.01977 -0.021682 0.06633
0.021726 -0.021924 0.06646
-0.019447 -0.020286 0.0663
0.020452 -0.02074 0.066402
0.021278 -0.020096 0.06633
-0.020224 -0.019588 0.06636
-0.019383 -0.019614 0.066536
-0.018502 -0.019523 0.066472
0.02053 -0.019649 0.06643
0.02168 -0.019707 0.066312
-0.020592 -0.018223 0.066942
-0.01913 -0.018028 0.066182
-0.018884 -0.018986 0.066192
0.020604 -0.018616 0.066
-0.020208 -0.01739 0.06629
-0.019537 -0.017369 0.066456
0.020826 -0.017203 0.06675
0.021796 -0.017247 0.06643
0.022158 -0.017539 0.066356
-0.020122 -0.016652 0.066938
0.020316 -0.01651 0.066746
0.021784 -0.01657 0.066458
0.022004 -0.016947 0.066392
-0.020128 -0.015172 0.066486
-0.019464 -0.015223 0.066402
0.021734 -0.015138 0.06634
-0.020076 -0.014766 0.066478
-0.019728 -0.014733 0.0665
0.02176 -0.014697 0.066478
0.022074 -0.014458 0.066338
-0.02006 -0.013738 0.06639
-0.019533 -0.013352 0.066706
0.022012 -0.013137 0.06626
-0.020216 -0.012395 0.066338
-0.019604 -0.012266 0.066358
0.020006 -0.012462 0.066632
0.021928 -0.012365 0.066514
0.022114 -0.012317 0.066412
-0.020106 -0.011747 0.06651
-0.019494 -0.011372 0.066748
0.022416 -0.011443 0.066524
-0.020286 -0.010193 0.066038
-0.019461 -0.010284 0.066486
-0.018656 -0.010586 0.066904
0.021628 -0.010128 0.066804
0.022226 -0.010417 0.066608
-0.020258 -0.0095399 0.066328
-0.019333 -0.0096541 0.066896
0.020212 -0.0093875 0.066164
0.021876 -0.0094251 0.066528
0.022174 -0.0097305 0.066356
-0.020074 -0.0081942 0.066434
-0.019891 -0.0083692 0.066616
0.021852 -0.008067 0.066226
0.023368 -0.0082944 0.066418
-0.020388 -0.0074124 0.066478
-0.019583 -0.0074664 0.066264
-0.018997 -0.007474 0.066304
0.0206 -0.0071096 0.066666
0.021858 -0.0075234 0.066478
0.02219 -0.0072364 0.066434
-0.022822 -0.0066888 0.066074
-0.019409 -0.0067144 0.066604
-0.018699 -0.0063996 0.0667
-0.016651 -0.0063896 0.06645
-0.012324 -0.006127 0.066184
-0.0065258 -0.0060458 0.066268
-0.0047814 -0.0061072 0.066568
0.0089226 -0.0063204 0.066054
0.011682 -0.0063588 0.06618
0.012874 -0.0064502 0.066428
0.013612 -0.006238 0.066856
0.014667 -0.0061726 0.066572
0.016622 -0.0063402 0.066362
0.017274 -0.0061784 0.066506
0.018409 -0.0062382 0.066188
0.021882 -0.0069066 0.066642
0.022054 -0.0069554 0.066602
0.023394 -0.0065498 0.06668
-0.019355 -0.0055126 0.066478
-0.018353 -0.0055366 0.066452
-0.017937 -0.0054518 0.066402
-0.016349 -0.0051052 0.066238
-0.015505 -0.0051974 0.066474
-0.014113 -0.0051904 0.066566
-0.013338 -0.0051356 0.066184
-0.011979 -0.0050146 0.066752
-0.010674 -0.0050108 0.066526
-0.00863 -0.0051852 0.066702
-0.0058324 -0.0050376 0.066948
-0.0024678 -0.0059366 0.066246
0.0064678 -0.0050738 0.066156
0.008782 -0.005158 0.066504
0.0095663 -0.005189 0.066448
0.010297 -0.0053248 0.066484
0.011697 -0.005309 0.0665
0.012212 -0.0054138 0.066546
0.013362 -0.0056596 0.066296
0.014555 -0.0055348 0.066416
0.015329 -0.005855 0.066546
0.016652 -0.0056964 0.066432
0.017411 -0.005567 0.06646
0.019607 -0.005522 0.06642
0.020346 -0.0055098 0.06634
0.021656 -0.0053138 0.066432
0.022226 -0.0054346 0.066468
0.023466 -0.0055186 0.066494
-0.016126 -0.0044626 0.066336
-0.015454 -0.0046528 0.066296
-0.013477 -0.0048462 0.066556
-0.012633 -0.004858 0.06645
-0.011131 -0.0049548 0.066668
-0.010723 -0.0047396 0.06632
-0.0094065 -0.0047626 0.066602
-0.0084334 -0.0046442 0.066406
-0.0077824 -0.0045826 0.066248
-0.006157 -0.0044384 0.066314
-0.0056628 -0.0044232 0.066342
-0.0034898 -0.0043554 0.06647
-0.0028366 -0.004438 0.066684
-0.0011183 -0.0044098 0.066536
-0.00063196 -0.0043984 0.066508
0.0017369 -0.0043852 0.066416
0.0023384 -0.004295 0.06652
0.0038394 -0.004725 0.066058
0.0045126 -0.004462 0.066448
0.0055222 -0.004531 0.066488
0.006689 -0.0046218 0.066394
0.0072286 -0.0048086 0.06643
0.0088532 -0.0049766 0.06631
0.0093915 -0.0049326 0.066506
0.011488 -0.0048768 0.066652
0.014241 -0.0047274 0.066716
0.0163 -0.0043698 0.06643
0.021448 -0.0045884 0.066356
0.022198 -0.0049852 0.066498
-0.01752 -0.0037992 0.066784
-0.0060132 -0.0032614 0.06648
-0.0051892 -0.003348 0.066784
-0.0046154 -0.0035576 0.066388
-0.0039518 -0.0032408 0.066784
-0.00026054 -0.0039728 0.06698
0.000246 -0.0032646 0.066216
0.0018131 -0.0034066 0.066722
0.0020542 -0.003113 0.066662
0.0035778 -0.0036634 0.066158
-0.0077994 -0.052792 0.0672
-0.0055474 -0.051708 0.067466
-0.0012321 -0.051528 0.067638
6.6624e-05 -0.051646 0.067774
0.0043618 -0.05185 0.067812
0.0074434 -0.05157 0.06764
-0.005214 -0.050862 0.067168
-0.0037194 -0.050736 0.067622
-0.0010612 -0.05028 0.067084
0.004646 -0.050494 0.06721
0.0069986 -0.05053 0.067052
0.0084906 -0.050652 0.067448
0.0098419 -0.050036 0.067674
0.012385 -0.050114 0.067146
-0.012396 -0.049406 0.067442
-0.010766 -0.049924 0.067916
-0.0098195 -0.049814 0.067146
-0.0066458 -0.049484 0.067768
0.011321 -0.049942 0.067632
0.013707 -0.049626 0.067478
-0.0090214 -0.048926 0.06793
0.002814 -0.04861 0.068
0.014761 -0.048466 0.067836
0.01534 -0.048164 0.067088
-0.013116 -0.047642 0.067892
-0.011865 -0.047008 0.067544
0.015955 -0.047236 0.06729
0.015021 -0.046308 0.067298
-0.013976 -0.04523 0.067322
0.014839 -0.04554 0.067346
-0.015157 -0.04428 0.067832
-0.014837 -0.044368 0.067564
0.018476 -0.044232 0.067686
0.015108 -0.043776 0.067394
-0.01785 -0.04214 0.06704
0.019869 -0.040778 0.067252
0.020414 -0.040814 0.067744
0.021322 -0.040636 0.067102
-0.018806 -0.039688 0.067448
0.020788 -0.039118 0.067604
0.021124 -0.03977 0.06711
-0.019087 -0.038232 0.06724
0.02123 -0.038376 0.067758
-0.020066 -0.037546 0.067974
0.02033 -0.037654 0.06734
-0.018595 -0.036688 0.067486
0.020902 -0.036972 0.067122
-0.01999 -0.035268 0.06762
-0.01843 -0.03562 0.067196
-0.016979 -0.035152 0.067254
0.020234 -0.03577 0.067074
0.021256 -0.035262 0.06727
0.020714 -0.034664 0.067354
0.021386 -0.034644 0.06724
-0.02009 -0.033312 0.067052
-0.019684 -0.033208 0.067278
-0.019198 -0.032312 0.067568
0.020778 -0.032338 0.067854
0.021498 -0.032366 0.067654
-0.01985 -0.031598 0.06756
0.020624 -0.031844 0.067336
-0.020112 -0.030484 0.06771
0.02057 -0.030128 0.067162
-0.019703 -0.02983 0.06791
-0.018976 -0.029128 0.067532
0.02078 -0.029176 0.067988
-0.018661 -0.028232 0.067588
-0.020104 -0.027246 0.067424
0.021536 -0.027604 0.06793
0.023712 -0.027122 0.067064
-0.020142 -0.026918 0.067608
-0.019818 -0.02663 0.067808
-0.018701 -0.026984 0.067218
-0.019173 -0.025734 0.067204
-0.02063 -0.024122 0.067558
-0.019677 -0.02442 0.067618
0.02075 -0.02496 0.067564
-0.019355 -0.023478 0.06759
-0.018925 -0.02359 0.067834
0.020458 -0.023212 0.06747
-0.019704 -0.022334 0.067446
0.020662 -0.022286 0.067556
-0.019676 -0.021914 0.067472
0.020712 -0.021702 0.067602
0.021614 -0.0216 0.06757
0.020276 -0.02004 0.067478
0.021604 -0.020524 0.067132
-0.019307 -0.019463 0.067006
0.02074 -0.019911 0.067448
-0.019384 -0.018084 0.067086
-0.01878 -0.018067 0.067148
0.021756 -0.018405 0.06767
-0.018916 -0.017729 0.067236
0.020334 -0.017883 0.06787
0.021856 -0.017547 0.067556
-0.019036 -0.015486 0.067172
-0.019471 -0.014517 0.06741
0.021872 -0.014685 0.06742
-0.019326 -0.01317 0.067122
0.021546 -0.013731 0.06797
0.023426 -0.013958 0.06761
-0.019362 -0.012481 0.067162
-0.019004 -0.011239 0.067352
0.020622 -0.011673 0.067714
-0.019243 -0.0090599 0.067536
-0.02009 -0.0087428 0.067786
-0.019529 -0.0081704 0.067358
0.019086 -0.0080144 0.067852
-0.019419 -0.0072414 0.067378
0.015326 -0.0070216 0.06791
0.016295 -0.0072144 0.067484
0.018641 -0.0072146 0.067104
0.022248 -0.0075368 0.067608
-0.02021 -0.0064628 0.067166
-0.019368 -0.0064836 0.067608
-0.018931 -0.0063162 0.067602
-0.017115 -0.0062934 0.067392
-0.016112 -0.0068276 0.067168
-0.014543 -0.0060134 0.067368
-0.013059 -0.0066852 0.06779
-0.012624 -0.0061038 0.067528
-0.011107 -0.0062962 0.06745
-0.010827 -0.0061966 0.06702
-0.0072452 -0.0061252 0.067242
0.0044084 -0.006025 0.067768
0.0074972 -0.0069622 0.06747
0.0090396 -0.0068572 0.067778
0.010029 -0.0063316 0.067904
0.012661 -0.0065046 0.06747
0.015 -0.0062142 0.067628
0.017038 -0.0063094 0.067582
0.018342 -0.00691 0.067944
-0.017525 -0.0055586 0.06735
-0.012519 -0.0054826 0.06785
-0.010943 -0.0050426 0.067738
-0.0087774 -0.005107 0.067006
0.0091157 -0.0053152 0.067954
0.010218 -0.0053426 0.067148
0.01166 -0.0059894 0.067742
0.014962 -0.0059008 0.067306
0.017173 -0.0055622 0.067004
0.01831 -0.0059858 0.067876
0.019487 -0.0050674 0.067624
0.020828 -0.0058026 0.067186
-0.010667 -0.0049816 0.067028
-0.0091243 -0.004723 0.067104
-0.0061674 -0.0046428 0.067028
-4.2804e-06 -0.004454 0.067356
0.0011695 -0.004223 0.067122
0.02027 -0.0049126 0.067748
0.021496 -0.0046314 0.067606
0.024084 -0.0042078 0.06702
-0.0079576 -0.003081 0.067038
-0.0063146 -0.003101 0.067444
-0.0017017 -0.0030732 0.067564
0.0016083 -0.0031802 0.067558
0.020566 -0.0031418 0.067206
0.021614 -0.0038264 0.06793
0.0051654 -0.0028822 0.067852
0.018111 -0.0027012 0.067534
0.019884 -0.002591 0.067206
0.0002256 -0.05207 0.068298
0.0031316 -0.052008 0.068908
0.0080184 -0.052932 0.068028
-0.0008757 -0.05162 0.068324
0.000784 -0.05153 0.068016
-0.010534 -0.050508 0.068844
-0.0084708 -0.050104 0.068718
-0.0079754 -0.050216 0.06871
-0.0062262 -0.050454 0.068534
-0.0053984 -0.0502 0.068662
-0.0032472 -0.050452 0.06861
-0.0028216 -0.05022 0.068752
-0.001111 -0.050404 0.068746
-0.0006302 -0.050254 0.06884
0.0015682 -0.050246 0.068868
0.0021174 -0.050214 0.068712
0.0043768 -0.05031 0.068608
0.0066956 -0.050232 0.068706
0.0070694 -0.050018 0.06897
0.0086366 -0.050166 0.068336
0.0094349 -0.050086 0.06864
0.011545 -0.050262 0.068688
-0.012349 -0.049442 0.068282
-0.010318 -0.049492 0.068452
-0.0098377 -0.049552 0.06877
-0.0080916 -0.04992 0.068876
-0.0078574 -0.049694 0.068482
-0.0062344 -0.049968 0.068854
-0.0036258 -0.049958 0.068984
0.0042168 -0.049956 0.068926
0.0050824 -0.049828 0.068954
0.0066824 -0.049616 0.06876
0.007208 -0.049802 0.068854
0.0087308 -0.049696 0.068942
0.0094915 -0.049804 0.06877
0.011792 -0.049646 0.068408
0.01216 -0.049754 0.068562
0.013686 -0.049572 0.068504
-0.012037 -0.048314 0.068344
-0.011139 -0.048056 0.068972
-0.010949 -0.048144 0.06889
-0.0029502 -0.048324 0.06844
-0.00080812 -0.048618 0.068912
0.0041226 -0.04826 0.068478
0.0064776 -0.048686 0.068538
0.0082092 -0.048634 0.068226
0.0097101 -0.048098 0.068854
0.012714 -0.048936 0.068422
-0.014629 -0.047616 0.068338
-0.013106 -0.047452 0.068456
-0.012755 -0.047494 0.068636
-0.011594 -0.04783 0.06856
0.014519 -0.04768 0.068678
0.015529 -0.047032 0.06872
-0.012912 -0.046974 0.068212
0.015259 -0.04631 0.06874
-0.015108 -0.045462 0.068538
-0.014307 -0.045186 0.068044
-0.013758 -0.045318 0.068798
0.014582 -0.045884 0.068858
0.015197 -0.04569 0.068622
0.016351 -0.045088 0.068638
-0.015059 -0.044388 0.068802
-0.014857 -0.044406 0.068478
0.016341 -0.04471 0.068606
0.017242 -0.0442 0.068272
-0.016239 -0.04305 0.068702
-0.015646 -0.043032 0.06897
-0.014332 -0.043754 0.068842
0.014124 -0.043584 0.068974
0.016954 -0.043528 0.068968
0.017243 -0.04324 0.06883
-0.01815 -0.04269 0.068826
-0.017748 -0.042208 0.068624
-0.016207 -0.042714 0.068742
-0.015849 -0.042892 0.068656
0.017566 -0.042674 0.068634
0.01866 -0.042408 0.068742
0.019374 -0.042408 0.068608
-0.018002 -0.041832 0.068816
-0.017787 -0.041894 0.068758
-0.01662 -0.041324 0.06876
0.019595 -0.041508 0.068684
0.02026 -0.041046 0.068426
-0.019018 -0.040376 0.068632
-0.018436 -0.040382 0.068828
0.020368 -0.040408 0.068642
0.021014 -0.040124 0.068618
-0.019006 -0.03942 0.0684
-0.018745 -0.039802 0.068748
0.020498 -0.039766 0.068482
0.021302 -0.03951 0.068628
-0.018746 -0.038612 0.068562
0.020346 -0.038012 0.068542
0.021382 -0.038262 0.068508
-0.019431 -0.037738 0.06856
-0.018709 -0.03761 0.068732
0.020394 -0.0374 0.068626
0.021198 -0.037584 0.06849
0.02058 -0.036542 0.068604
0.021512 -0.036492 0.068616
-0.019553 -0.035668 0.068846
-0.01879 -0.035312 0.068882
0.020358 -0.035546 0.068804
0.021304 -0.03555 0.068574
-0.018749 -0.034884 0.068774
-0.017954 -0.034772 0.068302
0.02042 -0.034586 0.068356
0.02137 -0.034624 0.068744
0.02215 -0.034636 0.06853
-0.020124 -0.033174 0.068366
0.020798 -0.033514 0.06885
-0.019065 -0.03241 0.068574
-0.018714 -0.032604 0.068812
-0.017468 -0.03266 0.068744
0.020534 -0.032558 0.068116
0.021436 -0.032372 0.06879
-0.020104 -0.031842 0.068262
-0.019095 -0.03031 0.068472
-0.018737 -0.030116 0.068462
0.020236 -0.030442 0.068258
0.021544 -0.030178 0.068644
-0.018864 -0.029904 0.068784
0.020538 -0.029766 0.068866
0.021362 -0.029654 0.068678
-0.019126 -0.028434 0.068542
-0.01905 -0.027616 0.068712
-0.018781 -0.02755 0.068684
0.021402 -0.027616 0.068746
-0.020072 -0.026612 0.068384
0.020528 -0.026316 0.068484
0.021376 -0.026702 0.068668
-0.019345 -0.025326 0.068814
-0.018749 -0.025272 0.068526
0.02066 -0.025516 0.068682
0.021412 -0.025656 0.06884
0.022026 -0.025216 0.068718
-0.019097 -0.024378 0.068648
-0.018892 -0.024802 0.06846
0.020572 -0.024452 0.068626
0.021418 -0.024522 0.068682
-0.019321 -0.023348 0.06885
-0.018992 -0.023432 0.068844
0.020424 -0.02345 0.068164
0.021068 -0.023666 0.068334
-0.020306 -0.022074 0.068602
-0.019364 -0.022426 0.068712
-0.018392 -0.022522 0.068894
0.020744 -0.022306 0.06816
0.021564 -0.022442 0.068618
0.023826 -0.022376 0.068622
-0.019202 -0.021808 0.068718
0.02141 -0.021894 0.0688
-0.019425 -0.020234 0.068558
0.021462 -0.02027 0.068746
-0.020354 -0.019531 0.068488
-0.019382 -0.019737 0.068574
-0.018696 -0.01962 0.06861
0.020802 -0.019774 0.068024
0.021594 -0.019896 0.068716
0.022046 -0.019574 0.068626
-0.019523 -0.018857 0.068946
0.020682 -0.018608 0.06831
-0.020346 -0.017505 0.0682
-0.019479 -0.017268 0.068712
-0.018938 -0.01732 0.06896
0.021512 -0.01738 0.068642
-0.020106 -0.016736 0.06885
-0.01946 -0.016706 0.068668
0.020718 -0.016573 0.068708
0.021472 -0.016818 0.06874
0.022102 -0.016926 0.06881
-0.020024 -0.015216 0.068752
-0.018157 -0.015963 0.068336
0.020436 -0.015134 0.068508
0.021712 -0.015217 0.068718
-0.020472 -0.014665 0.068648
-0.019455 -0.01455 0.068816
0.020676 -0.014475 0.068602
0.021692 -0.014623 0.068576
0.022384 -0.014599 0.068358
-0.01914 -0.013476 0.068406
0.0216 -0.013896 0.068804
-0.020182 -0.012797 0.068794
-0.019385 -0.012578 0.06876
0.021654 -0.012725 0.068462
0.02213 -0.012599 0.068758
-0.020128 -0.011345 0.068598
-0.019738 -0.011876 0.0684
0.020432 -0.01159 0.068232
0.02161 -0.011593 0.06862
-0.01931 -0.010686 0.06844
-0.02004 -0.0095691 0.068578
-0.019399 -0.0096001 0.068688
0.02065 -0.0098323 0.068708
0.021762 -0.0097519 0.06862
0.022032 -0.0092047 0.068826
-0.019382 -0.008931 0.068792
0.022068 -0.0089942 0.06883
-0.02009 -0.0075712 0.068704
-0.019236 -0.0072936 0.068856
-0.018975 -0.0071266 0.068334
0.010471 -0.0077362 0.068324
0.014687 -0.0071252 0.068748
0.020456 -0.0073858 0.068686
0.021692 -0.0074542 0.068724
0.02207 -0.0074626 0.068656
-0.020644 -0.0066504 0.068112
-0.019165 -0.006993 0.068962
-0.018861 -0.006529 0.068658
-0.012838 -0.0066604 0.068942
-0.011847 -0.0062464 0.068426
-0.010748 -0.0060702 0.068588
-0.0093247 -0.0061944 0.068916
0.0050332 -0.006011 0.068782
0.0097263 -0.0064862 0.068238
0.011696 -0.0065246 0.0687
0.012691 -0.006207 0.06875
0.014546 -0.0061394 0.068694
0.015299 -0.0062498 0.068252
0.016593 -0.0062764 0.068174
0.017476 -0.00623 0.06857
0.018306 -0.0063258 0.068544
0.019126 -0.0066176 0.068666
0.021758 -0.0065096 0.068614
0.02221 -0.006824 0.068924
-0.020134 -0.0051452 0.068196
-0.01912 -0.0059976 0.068488
-0.018269 -0.0052324 0.068732
-0.017959 -0.0055466 0.068524
-0.016436 -0.0051104 0.068522
-0.015424 -0.0051232 0.06863
-0.014564 -0.0050834 0.068556
-0.013405 -0.0051196 0.06879
-0.012527 -0.005977 0.068226
-0.010498 -0.0050816 0.068978
0.0047898 -0.005184 0.06899
0.0068376 -0.005039 0.068846
0.007257 -0.0051298 0.068964
0.0094457 -0.0052578 0.068592
0.011666 -0.0053798 0.068618
0.012154 -0.0052824 0.068676
0.01441 -0.005701 0.068758
0.015186 -0.0056108 0.06867
0.016801 -0.0056754 0.068874
0.017362 -0.0057198 0.068652
0.019657 -0.00538 0.068622
0.020242 -0.0055076 0.068694
0.021712 -0.0053234 0.068778
-0.017846 -0.0048372 0.0686
-0.016449 -0.0048686 0.06853
-0.01555 -0.0049394 0.068652
-0.01339 -0.004588 0.06868
-0.011128 -0.0048208 0.068698
-0.010836 -0.0048418 0.068636
-0.0096951 -0.0046512 0.068296
-0.0085236 -0.0047006 0.068746
-0.0076818 -0.004367 0.06872
-0.006168 -0.004482 0.068782
-0.0056486 -0.0044244 0.06864
-0.0033286 -0.0042786 0.06869
-0.0027284 -0.0044676 0.068838
-0.0013995 -0.0043038 0.068662
-0.00062966 -0.0044062 0.06886
0.0017734 -0.0045098 0.068784
0.0022446 -0.0043374 0.068632
0.0037454 -0.0044628 0.068846
0.004419 -0.0045566 0.068632
0.0066424 -0.0047806 0.068618
0.0073476 -0.0048368 0.068696
0.008805 -0.004899 0.068664
0.0094819 -0.004942 0.068642
0.013599 -0.004914 0.068128
0.02071 -0.0046246 0.068046
0.021386 -0.0046176 0.068412
0.022122 -0.0044146 0.068462
-0.010712 -0.0034354 0.068016
0.00088156 -0.0032016 0.068522
0.020974 -0.003993 0.068728
0.021942 -0.0032456 0.068444
-0.012972 -0.002915 0.068688
-0.008659 -0.0025546 0.068672
-0.004453 -0.0028244 0.068952
-0.00093945 -0.0029128 0.068914
-0.002045 -0.052772 0.069468
-0.0066498 -0.051796 0.069912
-0.005417 -0.050254 0.069278
-0.0030638 -0.050062 0.069174
-0.00058936 -0.050396 0.069242
0.0018768 -0.050134 0.06907
0.0024712 -0.05008 0.069048
0.0034164 -0.05042 0.069904
0.0042368 -0.0504 0.069172
0.0067148 -0.050062 0.069162
0.0071502 -0.050304 0.069262
-0.01054 -0.04931 0.0695
-0.0083036 -0.049588 0.069232
-0.007978 -0.049844 0.069528
-0.0053822 -0.049776 0.06927
-0.0030752 -0.04998 0.06908
-0.002168 -0.049856 0.06928
-0.0017839 -0.049712 0.069674
-0.00064782 -0.049904 0.069016
9.0687e-05 -0.049828 0.069184
0.0019358 -0.049708 0.06944
0.0024598 -0.049742 0.06956
0.0072984 -0.049744 0.06958
0.010283 -0.049268 0.069384
0.01141 -0.049686 0.06916
0.012152 -0.049562 0.069122
0.014035 -0.049166 0.069332
-0.012178 -0.048692 0.06952
-0.011381 -0.048298 0.069304
-0.0091659 -0.04873 0.06952
-0.0086502 -0.048928 0.069868
-0.0075016 -0.048728 0.069524
0.0013074 -0.048524 0.069308
0.0094313 -0.048342 0.0699
0.010277 -0.0487 0.069616
0.0115 -0.048542 0.069258
0.012563 -0.048784 0.069766
0.013372 -0.048356 0.069378
0.014343 -0.048486 0.069132
-0.013577 -0.047412 0.06913
-0.012535 -0.047626 0.069154
-0.011651 -0.047616 0.069026
-0.00068546 -0.047702 0.069158
0.00059388 -0.047758 0.06937
0.0064728 -0.047786 0.069862
0.014386 -0.0478 0.06919
0.015486 -0.047302 0.069232
0.014689 -0.04639 0.069548
0.015789 -0.046788 0.069378
-0.01368 -0.045332 0.069176
-0.011992 -0.04585 0.069992
0.015312 -0.045682 0.069268
-0.015324 -0.044142 0.069116
0.016354 -0.044588 0.06923
0.017101 -0.04441 0.069136
-0.014627 -0.043704 0.069066
0.014928 -0.043912 0.0696
0.015676 -0.043042 0.069706
0.017229 -0.043432 0.06901
-0.01793 -0.042098 0.069136
-0.016543 -0.042762 0.069194
-0.015786 -0.042848 0.069134
0.017388 -0.042922 0.06924
0.018726 -0.042428 0.069546
0.019153 -0.042164 0.069256
-0.018758 -0.041682 0.069616
-0.017458 -0.041298 0.06923
-0.016577 -0.041066 0.069832
0.019559 -0.041828 0.069224
0.021298 -0.041588 0.069774
-0.018515 -0.040296 0.069226
0.019809 -0.040846 0.069382
0.020348 -0.040532 0.069428
0.021508 -0.040302 0.069414
-0.018497 -0.039998 0.069248
0.020996 -0.039876 0.069282
0.021128 -0.039568 0.06957
-0.019987 -0.03843 0.069176
-0.018728 -0.038492 0.069918
0.02032 -0.038422 0.06963
-0.01902 -0.037692 0.06967
-0.01866 -0.037492 0.06931
0.019533 -0.03763 0.069278
0.020246 -0.037154 0.069392
0.021352 -0.037356 0.069438
0.02012 -0.036034 0.069644
-0.019087 -0.035448 0.069276
-0.018746 -0.035212 0.069098
0.020628 -0.035712 0.06952
0.021288 -0.035248 0.069144
-0.018662 -0.034966 0.06953
0.020492 -0.034024 0.06957
0.021746 -0.03459 0.069034
0.020562 -0.033394 0.069694
-0.020258 -0.032652 0.069676
-0.019228 -0.03252 0.069212
-0.018768 -0.032452 0.069118
0.021348 -0.032418 0.069248
-0.018493 -0.031982 0.069612
0.020584 -0.03144 0.069568
0.022338 -0.031386 0.06923
-0.020332 -0.030736 0.069352
-0.019007 -0.030236 0.069176
-0.018651 -0.030006 0.069116
0.021566 -0.030154 0.069428
-0.019338 -0.029184 0.069066
-0.018518 -0.02958 0.069436
0.021152 -0.029064 0.069536
0.021932 -0.0283 0.069034
-0.019092 -0.027448 0.069078
-0.018844 -0.027746 0.069476
0.020848 -0.027342 0.069278
0.021776 -0.02752 0.069046
-0.019577 -0.026138 0.0695
-0.018775 -0.02688 0.06927
-0.017841 -0.026938 0.069074
0.020684 -0.026606 0.069392
0.021082 -0.026554 0.069088
-0.020116 -0.025914 0.069688
-0.01915 -0.025378 0.069034
-0.018885 -0.02514 0.069256
-0.017998 -0.025242 0.069304
0.020442 -0.02549 0.069388
0.021568 -0.025148 0.069154
-0.019741 -0.024464 0.069374
-0.018679 -0.024596 0.069304
0.020778 -0.024458 0.069502
0.02153 -0.024926 0.069106
-0.019698 -0.023082 0.06974
0.02059 -0.0231 0.069754
-0.020056 -0.02271 0.06925
-0.019539 -0.022524 0.069344
-0.018792 -0.022438 0.069152
0.020596 -0.022496 0.069546
0.021428 -0.022684 0.069172
0.022122 -0.02259 0.069166
-0.016911 -0.021068 0.069508
0.021426 -0.02119 0.06918
-0.020266 -0.020262 0.06994
-0.019099 -0.02037 0.069264
-0.018804 -0.020474 0.069014
0.020828 -0.020052 0.06969
0.021436 -0.020308 0.069574
-0.019284 -0.019717 0.069056
-0.018929 -0.019374 0.06928
0.02035 -0.019135 0.069506
0.02156 -0.019616 0.069166
-0.019135 -0.018892 0.069106
-0.02038 -0.017079 0.06905
-0.019557 -0.01755 0.069344
-0.018954 -0.017233 0.069146
0.020376 -0.017172 0.069452
0.021674 -0.017238 0.069094
0.022236 -0.01799 0.069574
-0.020164 -0.016837 0.069834
-0.019814 -0.016672 0.06953
-0.018612 -0.016297 0.069618
0.020232 -0.016456 0.069716
0.021492 -0.016913 0.069292
-0.020168 -0.015656 0.069216
-0.019628 -0.015324 0.06902
-0.020144 -0.014571 0.06913
-0.019614 -0.014709 0.069382
-0.018849 -0.014707 0.069454
0.021622 -0.014555 0.06923
0.022172 -0.01497 0.069202
-0.019494 -0.013044 0.069206
0.021406 -0.013897 0.069908
-0.020112 -0.012477 0.069138
-0.019466 -0.012607 0.069318
-0.018888 -0.012759 0.06914
0.021716 -0.012316 0.069364
0.02215 -0.012014 0.069182
-0.02049 -0.011753 0.069116
-0.019914 -0.011616 0.06936
0.020694 -0.011881 0.0698
-0.02039 -0.010275 0.069352
-0.019594 -0.010204 0.069162
0.020522 -0.010824 0.069946
0.02235 -0.010269 0.069436
-0.02035 -0.0095641 0.069358
-0.019615 -0.0094289 0.069376
-0.018911 -0.0098715 0.06912
0.02163 -0.0097479 0.069366
0.022162 -0.0099091 0.06943
-0.020598 -0.008319 0.069876
-0.019694 -0.0082032 0.069304
0.020512 -0.0082028 0.069978
-0.020116 -0.0073514 0.06941
-0.019431 -0.007237 0.069224
0.021804 -0.0072282 0.069128
0.022228 -0.0072816 0.069312
-0.0195 -0.00647 0.069358
-0.018636 -0.0065068 0.069396
-0.017564 -0.006591 0.069778
-0.013531 -0.0060562 0.069772
-0.0098235 -0.0062806 0.069166
-0.0055196 -0.0061652 0.06938
-0.0006971 -0.006134 0.069114
0.0046896 -0.0063402 0.069086
0.0096893 -0.0065238 0.069032
0.012289 -0.0065806 0.069352
0.013555 -0.0063774 0.069456
0.015287 -0.0065106 0.06929
0.016251 -0.0063214 0.069282
0.017167 -0.0062498 0.069236
0.018801 -0.00651 0.069122
0.019905 -0.0063102 0.0698
0.020038 -0.0064936 0.069466
0.021746 -0.006948 0.069272
-0.018528 -0.0055964 0.069078
-0.017341 -0.0055198 0.0691
-0.016118 -0.0050098 0.069098
-0.015787 -0.0051994 0.069464
-0.014019 -0.0051074 0.069258
-0.013428 -0.005371 0.069122
0.0046306 -0.0050816 0.069346
0.0092075 -0.0052584 0.069296
0.010645 -0.005453 0.069694
0.011805 -0.0054792 0.069452
0.012225 -0.0055296 0.069562
0.013578 -0.005662 0.06979
0.014452 -0.005676 0.06924
0.015578 -0.005123 0.069174
0.016835 -0.005603 0.069098
0.017393 -0.0056434 0.06916
0.019702 -0.0054008 0.069134
0.02073 -0.005592 0.06925
0.021898 -0.0054366 0.069092
-0.015611 -0.0048228 0.069472
-0.011161 -0.0045786 0.069342
-0.010674 -0.0047882 0.069356
-0.008427 -0.0045298 0.06923
-0.0061784 -0.0043602 0.069338
-0.0055322 -0.004525 0.06932
-0.0046704 -0.0042146 0.069126
-0.0033444 -0.0042948 0.06922
-0.0012909 -0.0040428 0.069976
-0.00059434 -0.0044088 0.06933
0.0016825 -0.004528 0.06925
0.0025044 -0.0043342 0.069424
0.003547 -0.004683 0.069464
0.004529 -0.004766 0.069154
0.0066908 -0.004799 0.069464
0.0071496 -0.0046996 0.0693
0.0097315 -0.0048866 0.069112
0.02155 -0.0045594 0.069192
-0.012415 -0.0032048 0.069888
-0.0073072 -0.0030414 0.069956
-0.0040024 -0.0032304 0.06958
-0.0032254 -0.003517 0.069544
-0.0058402 -0.00281 0.0696
0.00033488 -0.0029314 0.069464
-0.0094757 -0.051596 0.070842
0.0094015 -0.051414 0.070742
0.0099163 -0.05023 0.070752
0.012811 -0.05037 0.070572
-0.01032 -0.049326 0.07075
-0.0097391 -0.049344 0.070346
-0.0089438 -0.049164 0.070772
-0.0077122 -0.049596 0.070724
-0.0062324 -0.049556 0.070818
-0.0053238 -0.049464 0.0708
-0.0042262 -0.049124 0.0702
-0.00027396 -0.049572 0.070614
0.00098225 -0.049452 0.070924
0.0016921 -0.049606 0.07091
0.0021762 -0.049188 0.070938
0.0043478 -0.049462 0.070948
0.0058052 -0.049378 0.070812
0.0074374 -0.049284 0.070904
0.0085938 -0.049388 0.070726
0.0099433 -0.049818 0.070652
0.011235 -0.049514 0.070636
0.012498 -0.049142 0.07068
-0.012689 -0.048296 0.070534
-0.0058608 -0.048752 0.070692
-0.0038008 -0.048902 0.070704
-0.002543 -0.048538 0.070532
0.003296 -0.048492 0.070056
0.0056822 -0.048878 0.070908
0.0063788 -0.0487 0.07006
0.011371 -0.048154 0.07092
0.012241 -0.048746 0.07048
0.013227 -0.048014 0.070106
-0.01245 -0.047256 0.070886
0.015177 -0.047626 0.070562
-0.013038 -0.046722 0.070498
0.016613 -0.046628 0.070674
0.014883 -0.0455 0.070812
-0.015162 -0.04433 0.070572
-0.014659 -0.044372 0.07084
0.016013 -0.044464 0.070156
-0.01425 -0.043686 0.07047
-0.013732 -0.043028 0.070318
0.015569 -0.043872 0.070536
0.01688 -0.043248 0.070488
-0.018398 -0.042584 0.070752
-0.017737 -0.04215 0.07081
-0.016055 -0.042528 0.070972
-0.015928 -0.04277 0.070564
-0.01364 -0.042688 0.070358
0.019373 -0.042088 0.07058
0.020348 -0.042138 0.070656
-0.017899 -0.041508 0.070686
0.019565 -0.041958 0.070836
0.019744 -0.040348 0.070714
-0.01863 -0.039568 0.070544
0.020716 -0.039624 0.070654
0.021568 -0.039754 0.070684
-0.016827 -0.038342 0.070274
-0.02021 -0.037698 0.07011
-0.01851 -0.037376 0.070836
-0.01767 -0.037442 0.070636
0.020194 -0.037846 0.070322
-0.019186 -0.03654 0.070826
0.021018 -0.036124 0.070578
-0.019064 -0.035468 0.070002
0.020676 -0.035502 0.070884
0.021236 -0.035238 0.0707
-0.019129 -0.033444 0.070756
-0.018823 -0.033554 0.070084
-0.018544 -0.032434 0.070878
0.020608 -0.03236 0.070708
0.021312 -0.032154 0.070994
-0.019885 -0.031654 0.07046
-0.018812 -0.031974 0.070964
0.019376 -0.03178 0.07097
-0.019474 -0.030596 0.070516
-0.016079 -0.030182 0.070916
0.02082 -0.03073 0.070454
0.021224 -0.03006 0.070562
-0.020062 -0.029858 0.070246
0.020702 -0.029954 0.07065
0.019795 -0.02822 0.070504
-0.019849 -0.027138 0.070976
-0.018282 -0.027612 0.070626
0.020068 -0.027546 0.070826
0.021318 -0.027534 0.070366
0.020768 -0.026442 0.070576
0.021974 -0.0263 0.070446
-0.018737 -0.025022 0.070972
0.020436 -0.025342 0.070552
0.02179 -0.025274 0.07084
-0.019825 -0.02496 0.070958
0.020806 -0.024286 0.07004
0.021128 -0.024646 0.070798
-0.019142 -0.023676 0.07085
0.02054 -0.023756 0.070296
0.021754 -0.02316 0.070754
-0.020346 -0.022268 0.070702
-0.01886 -0.02262 0.070996
0.022138 -0.022758 0.070546
-0.020362 -0.02195 0.070304
-0.01856 -0.021312 0.070852
0.020602 -0.021848 0.070368
-0.018389 -0.020302 0.070876
-0.020182 -0.019815 0.070296
-0.019064 -0.019807 0.070606
-0.018796 -0.019727 0.070852
0.02037 -0.019625 0.070722
0.021418 -0.019797 0.070004
0.021466 -0.018976 0.070066
-0.019774 -0.017722 0.070946
-0.018973 -0.017704 0.07093
-0.017908 -0.017653 0.07013
0.020216 -0.017791 0.0706
0.021742 -0.017198 0.070932
-0.019286 -0.015825 0.070368
0.020376 -0.015372 0.070906
0.021294 -0.015051 0.0705
-0.019396 -0.014544 0.070476
0.021968 -0.014726 0.071
0.022314 -0.014485 0.070658
0.019662 -0.013936 0.070496
-0.020016 -0.012402 0.070524
-0.019429 -0.012255 0.07077
0.020452 -0.012153 0.070122
-0.019425 -0.011284 0.070484
-0.018861 -0.011235 0.07098
0.02292 -0.011976 0.07023
-0.019346 -0.010701 0.070968
0.020352 -0.010524 0.07059
-0.019515 -0.0094753 0.070596
0.021804 -0.0097805 0.07093
-0.019783 -0.0083748 0.070802
0.016943 -0.0085274 0.070364
0.02308 -0.0086542 0.070362
0.017266 -0.0071418 0.070726
0.02036 -0.0075222 0.07018
0.021746 -0.0076768 0.07061
-0.019238 -0.0068562 0.07097
-0.01859 -0.0061982 0.070142
-0.017155 -0.0060796 0.070052
-0.01577 -0.0063118 0.07049
-0.013292 -0.0067926 0.070366
-0.010693 -0.006156 0.070294
0.0084014 -0.0060218 0.070674
0.010887 -0.006454 0.070976
0.013586 -0.0065798 0.070636
0.014323 -0.0062134 0.070766
0.015471 -0.0061328 0.070076
0.016931 -0.0065554 0.070648
0.017263 -0.006226 0.070782
0.018775 -0.006083 0.070858
0.019531 -0.0068832 0.070654
0.021524 -0.0069354 0.070742
-0.019472 -0.0055996 0.070542
-0.018346 -0.0054944 0.070522
-0.0012797 -0.005999 0.070502
0.007223 -0.0050312 0.070766
0.011943 -0.0052554 0.070902
0.013658 -0.0055782 0.070802
0.016485 -0.005493 0.07056
0.017556 -0.0057628 0.070674
0.019534 -0.0055684 0.070472
0.020406 -0.0054068 0.070134
0.021492 -0.0053252 0.070838
-0.0097365 -0.0047788 0.07065
-0.0086754 -0.0045786 0.070908
-0.007701 -0.004787 0.070134
-0.0063616 -0.0041174 0.070946
-0.0032008 -0.0040794 0.070566
-0.0028176 -0.0042858 0.070398
0.0051646 -0.0046032 0.070334
0.0069356 -0.0049622 0.070992
0.0071568 -0.0049784 0.070744
0.017986 -0.0048694 0.07001
0.018051 -0.0047212 0.070992
0.021242 -0.0044712 0.070906
-0.0061178 -0.0030988 0.070884
0.00049814 -0.0033534 0.070388
0.0014172 -0.0032818 0.070534
0.0039038 -0.0038536 0.07006
0.0045746 -0.0032164 0.070502
0.02133 -0.0037524 0.070678
-0.0095927 -0.0024402 0.070748
-0.0027476 -0.0022004 0.070182
-0.010584 -0.050644 0.071698
-0.0057506 -0.050178 0.071494
0.0044974 -0.05017 0.071202
0.0093399 -0.050038 0.07151
-0.011127 -0.04908 0.071672
-0.0098083 -0.049194 0.071376
-0.0084338 -0.04941 0.07147
-0.0075566 -0.049344 0.071222
-0.006564 -0.049402 0.07148
-0.0056444 -0.04962 0.071282
-0.0032986 -0.049424 0.071546
-0.0026028 -0.04957 0.071402
-0.00070116 -0.049498 0.071448
0.00161 -0.049652 0.071374
0.0036188 -0.049598 0.071428
0.0042706 -0.049452 0.071472
0.0059506 -0.049698 0.07121
0.0067952 -0.04945 0.071236
0.007343 -0.049502 0.071404
0.0088642 -0.049394 0.071684
0.0093859 -0.049392 0.07113
0.010436 -0.049308 0.07151
0.011044 -0.049114 0.071408
0.012294 -0.049412 0.071128
-0.0109 -0.048122 0.071498
-0.0098155 -0.048618 0.07145
-0.0086026 -0.04848 0.071574
-0.0062418 -0.048274 0.071896
-0.0056246 -0.04872 0.071874
-0.0047296 -0.048848 0.07155
-0.0038924 -0.048634 0.071854
-0.0026692 -0.048652 0.07181
-0.0011341 -0.048604 0.071916
-0.00038732 -0.048864 0.071878
0.0018405 -0.048654 0.071708
0.002432 -0.048684 0.071694
0.0038812 -0.048488 0.071828
0.0046742 -0.04846 0.071684
0.0069264 -0.048694 0.071774
0.007365 -0.048708 0.071546
0.0096513 -0.04858 0.071482
0.010677 -0.048374 0.071414
0.011718 -0.048344 0.071364
0.012207 -0.04823 0.071504
0.013288 -0.048978 0.07194
0.014087 -0.048226 0.07134
-0.013242 -0.047182 0.071466
-0.012662 -0.047354 0.071356
-0.0108 -0.047762 0.071482
0.013895 -0.04799 0.071326
0.014287 -0.04749 0.071382
-0.012715 -0.046588 0.07145
0.01537 -0.046358 0.07114
0.016153 -0.04692 0.071228
-0.013382 -0.0455 0.071354
0.014962 -0.045494 0.071348
0.015386 -0.04535 0.071316
0.016597 -0.045386 0.071398
-0.015038 -0.04436 0.071706
-0.014694 -0.044492 0.071588
-0.013654 -0.044858 0.071354
0.016184 -0.044596 0.071416
0.017134 -0.044662 0.071058
-0.015393 -0.043252 0.071454
-0.014392 -0.043166 0.07154
0.016648 -0.043158 0.07128
0.017233 -0.043248 0.071482
-0.017526 -0.042274 0.071316
-0.016358 -0.042878 0.071166
-0.015795 -0.042598 0.071478
0.01737 -0.04273 0.071468
0.018997 -0.04222 0.071406
0.019416 -0.04227 0.071454
-0.017651 -0.041756 0.071552
-0.016778 -0.041256 0.071772
0.018901 -0.04198 0.07122
0.019301 -0.041864 0.071286
-0.018336 -0.040356 0.071334
0.019897 -0.040372 0.071566
0.02028 -0.040478 0.071474
0.021588 -0.040298 0.07115
-0.01848 -0.039604 0.07163
0.020716 -0.03982 0.071264
0.021156 -0.039398 0.0712
-0.019083 -0.03879 0.071728
-0.018722 -0.038026 0.07132
0.020592 -0.038228 0.07156
0.021046 -0.038228 0.071214
-0.019761 -0.037114 0.071904
-0.018747 -0.037584 0.071476
0.02063 -0.03749 0.071528
0.02113 -0.037646 0.07127
-0.019559 -0.036842 0.071524
0.020676 -0.036482 0.071604
-0.019892 -0.03548 0.071432
-0.0187 -0.035442 0.071616
0.0205 -0.035362 0.071588
0.02121 -0.03528 0.071398
-0.018756 -0.034814 0.071496
0.019709 -0.034812 0.071652
0.02041 -0.03475 0.071468
0.021158 -0.034672 0.071434
0.019821 -0.033216 0.07141
0.020398 -0.033314 0.071988
0.021146 -0.033088 0.071268
-0.019034 -0.032764 0.071486
-0.018745 -0.032614 0.071402
0.02029 -0.032394 0.071738
0.021272 -0.032534 0.071472
0.020656 -0.031386 0.071252
-0.01912 -0.030122 0.071176
-0.018745 -0.030198 0.07137
0.020518 -0.030488 0.071244
0.021408 -0.030224 0.071558
-0.019025 -0.02924 0.07108
-0.018438 -0.029848 0.07132
0.02075 -0.02933 0.071486
0.021406 -0.029736 0.071404
-0.02005 -0.02828 0.071946
0.020344 -0.028306 0.071426
0.02127 -0.028048 0.071098
-0.019251 -0.02762 0.071782
-0.018818 -0.027524 0.071282
0.020088 -0.027186 0.071164
0.021522 -0.027494 0.071406
-0.018759 -0.026848 0.071316
0.021316 -0.02653 0.071488
-0.019648 -0.02565 0.071502
-0.018774 -0.025132 0.071236
0.020572 -0.025392 0.071392
0.021356 -0.025264 0.071412
-0.019064 -0.024862 0.07147
-0.018794 -0.024754 0.071496
0.020466 -0.02439 0.071002
0.021394 -0.024756 0.07152
-0.020488 -0.023778 0.071006
-0.019672 -0.023262 0.07141
0.020706 -0.023006 0.071106
0.021478 -0.023578 0.07144
-0.019049 -0.02223 0.071674
-0.018893 -0.022442 0.071358
0.020504 -0.022148 0.071004
0.021356 -0.02249 0.071498
-0.019468 -0.02163 0.071804
-0.018706 -0.021532 0.071582
-0.017078 -0.021626 0.07131
0.020694 -0.021384 0.071278
0.021666 -0.02182 0.071556
-0.01929 -0.020902 0.071386
-0.018971 -0.020286 0.07119
0.021556 -0.020254 0.071268
-0.02026 -0.019187 0.071172
-0.019203 -0.019599 0.07126
-0.018799 -0.0197 0.07144
0.021498 -0.01954 0.07147
-0.019691 -0.018822 0.071062
-0.019084 -0.017316 0.071318
-0.018839 -0.017313 0.071588
0.020406 -0.017249 0.071402
0.021506 -0.017245 0.071442
-0.021052 -0.016711 0.071784
-0.019311 -0.016981 0.07199
-0.018845 -0.016671 0.07151
0.019839 -0.016416 0.071708
0.022314 -0.016915 0.071354
-0.019129 -0.015256 0.071606
-0.01883 -0.015129 0.071448
0.020656 -0.015649 0.071218
0.02183 -0.015212 0.071198
-0.020158 -0.014749 0.071228
-0.019449 -0.014753 0.071314
-0.018789 -0.014732 0.071616
0.021612 -0.014693 0.071542
-0.020632 -0.013727 0.071216
0.020284 -0.0136 0.07157
-0.020368 -0.012252 0.07149
-0.019261 -0.012414 0.071522
-0.018959 -0.01267 0.071474
0.020412 -0.012414 0.071236
0.021678 -0.012338 0.071356
-0.021918 -0.011293 0.071584
-0.020148 -0.011779 0.07154
-0.01949 -0.011811 0.071592
0.02167 -0.011791 0.071458
0.022056 -0.011678 0.071516
-0.02021 -0.010504 0.071118
-0.019405 -0.010252 0.071502
0.021328 -0.010141 0.07112
-0.02067 -0.0096881 0.071392
-0.01962 -0.0096221 0.071424
0.020426 -0.0098725 0.071758
0.021596 -0.0096667 0.07137
-0.020126 -0.0082014 0.071914
-0.019542 -0.0082126 0.071454
0.020692 -0.0083268 0.071574
0.021592 -0.0087604 0.071636
-0.020108 -0.0075168 0.071092
-0.019518 -0.0074066 0.071572
-0.018927 -0.0073384 0.071508
0.015176 -0.007939 0.071712
0.021656 -0.0072532 0.071628
-0.020366 -0.0063492 0.071756
-0.019403 -0.0068244 0.071622
-0.018896 -0.0067954 0.07175
-0.017608 -0.0065206 0.071614
-0.016297 -0.0060462 0.071772
-0.01563 -0.0063426 0.07161
-0.014812 -0.0060314 0.071158
-0.011386 -0.0069336 0.071292
0.0069602 -0.0066966 0.071764
0.0077212 -0.0061516 0.071538
0.0094787 -0.0060502 0.071394
0.011535 -0.0062564 0.07144
0.012627 -0.0062684 0.071378
0.013399 -0.0062108 0.071576
0.014345 -0.0065442 0.07168
0.017279 -0.006251 0.071586
0.019495 -0.0063742 0.071502
0.02158 -0.0068926 0.071546
-0.019283 -0.0058824 0.0714
-0.018381 -0.005294 0.071426
-0.017904 -0.0052574 0.071362
-0.016094 -0.005266 0.071546
-0.015781 -0.0052236 0.071424
-0.01338 -0.0052678 0.071506
-0.012984 -0.005017 0.07141
-0.011216 -0.005112 0.071252
-0.010637 -0.0050504 0.071342
-0.0085132 -0.005064 0.071342
0.004946 -0.0051048 0.071486
0.0065852 -0.0050916 0.07175
0.00716 -0.0050512 0.071336
0.0094541 -0.0052072 0.071562
0.0117 -0.0054304 0.071458
0.012179 -0.0055492 0.071294
0.013953 -0.0055314 0.071546
0.014576 -0.005595 0.071376
0.01519 -0.0056502 0.07149
0.01656 -0.0055138 0.071222
0.017264 -0.0056794 0.07142
0.019673 -0.0052394 0.07154
0.020154 -0.0052918 0.071698
0.02144 -0.0053324 0.071626
-0.018273 -0.0048566 0.07128
-0.016195 -0.0046584 0.071556
-0.015766 -0.0048298 0.071474
-0.013407 -0.0047756 0.071436
-0.011162 -0.0048612 0.071662
-0.010697 -0.0047844 0.071568
-0.0094099 -0.0047314 0.071206
-0.0083634 -0.004679 0.071404
-0.0061534 -0.0042938 0.071362
-0.0057824 -0.0044028 0.0715
-0.0033124 -0.0044038 0.071448
-0.0028292 -0.004247 0.071468
-0.0010868 -0.004403 0.07145
-0.00070874 -0.0042986 0.071546
0.0017777 -0.0044774 0.071444
0.002325 -0.0044642 0.071544
0.0036918 -0.0047186 0.071068
0.0043962 -0.0045296 0.07152
0.0065244 -0.0047962 0.071626
0.007147 -0.00488 0.0715
0.008723 -0.0048612 0.071808
0.0095689 -0.0049554 0.071614
0.011434 -0.00498 0.071252
0.019873 -0.004905 0.07126
0.02041 -0.0045996 0.071252
0.021234 -0.004696 0.071482
-0.0054636 -0.003968 0.071626
-0.002359 -0.003198 0.071612
-0.0016785 -0.0030394 0.071494
-0.0005356 -0.0037464 0.071718
1.443e-05 -0.003283 0.07125
0.0015707 -0.003971 0.071934
0.021024 -0.0036762 0.071184
0.0028794 -0.002967 0.071584
-0.0073628 -0.050034 0.0727
0.0048242 -0.05003 0.072722
-0.00745 -0.04934 0.072348
-0.0058276 -0.049214 0.072866
-0.0049194 -0.049526 0.072916
-0.0026474 -0.049192 0.072944
0.0019454 -0.049436 0.072904
0.0023744 -0.049054 0.072348
0.005597 -0.049216 0.072846
0.0062944 -0.04906 0.072478
0.0072408 -0.049958 0.072876
0.0082226 -0.049322 0.072704
-0.008471 -0.048144 0.072286
-0.0078552 -0.048882 0.072216
-0.0065644 -0.048734 0.072288
-0.0052764 -0.048602 0.072304
-0.0033862 -0.048814 0.072546
-0.0018625 -0.048808 0.072664
-0.00075188 -0.04887 0.072572
0.00029588 -0.048586 0.07237
0.0022216 -0.048496 0.072178
0.0037166 -0.048454 0.072524
0.0044362 -0.048604 0.072086
0.0054588 -0.048658 0.072302
0.0068142 -0.04858 0.072106
0.0074402 -0.04851 0.072088
0.0095367 -0.048578 0.072362
0.011635 -0.048342 0.072142
0.013396 -0.048026 0.072836
-0.012309 -0.047422 0.072494
0.002219 -0.04773 0.072444
0.013645 -0.047758 0.07202
0.01593 -0.047946 0.072096
-0.012119 -0.04667 0.072892
-0.011642 -0.0465 0.072674
0.014696 -0.046392 0.07296
-0.011534 -0.045992 0.072576
0.014143 -0.04554 0.07266
0.015337 -0.045386 0.072218
0.016106 -0.045248 0.072944
-0.014831 -0.04445 0.072536
0.016141 -0.044776 0.072766
-0.013786 -0.04347 0.072622
0.016783 -0.043128 0.072026
0.014843 -0.042874 0.072786
-0.01796 -0.041014 0.072416
-0.016696 -0.041132 0.072068
0.017603 -0.04102 0.072518
0.018056 -0.041316 0.072478
0.0211 -0.041022 0.072406
-0.018386 -0.040256 0.072564
0.019399 -0.0407 0.072014
0.020666 -0.040754 0.072352
0.020934 -0.03915 0.072588
0.02043 -0.037362 0.07221
0.02108 -0.037474 0.072306
-0.018879 -0.035114 0.072112
0.020476 -0.035994 0.07283
0.020766 -0.0346 0.072248
-0.01984 -0.03329 0.07265
-0.020266 -0.032614 0.072266
-0.019996 -0.032464 0.072764
0.020468 -0.032314 0.07239
0.021482 -0.032664 0.072134
0.02118 -0.031858 0.07202
0.020046 -0.030456 0.072322
0.02132 -0.030058 0.072052
-0.018753 -0.029822 0.07225
0.020614 -0.029458 0.072126
0.021152 -0.029928 0.072104
0.020342 -0.02856 0.07286
0.021212 -0.028398 0.07289
-0.0189 -0.027564 0.072456
0.020284 -0.027832 0.072252
0.021592 -0.027354 0.072066
-0.01945 -0.026394 0.072232
0.020572 -0.026308 0.072194
-0.018722 -0.025646 0.072296
-0.016761 -0.025862 0.072878
0.021536 -0.025256 0.072298
0.020624 -0.02468 0.072912
0.021366 -0.024954 0.072322
-0.018941 -0.023954 0.072688
-0.020118 -0.022088 0.072778
-0.019803 -0.02223 0.072594
-0.018595 -0.022656 0.072682
0.02032 -0.022492 0.072196
0.021228 -0.022482 0.072278
-0.0202 -0.021196 0.072764
0.020388 -0.021718 0.072336
0.021432 -0.021714 0.072268
-0.019699 -0.020382 0.072544
-0.018397 -0.019224 0.072232
0.020646 -0.019113 0.072434
-0.019762 -0.01752 0.072698
0.020472 -0.017551 0.072456
0.021142 -0.017669 0.072756
-0.01955 -0.016748 0.072138
-0.018503 -0.016969 0.072974
0.020816 -0.015365 0.072438
0.021376 -0.015043 0.072122
-0.018579 -0.014649 0.07213
0.02067 -0.014438 0.072758
0.02151 -0.014607 0.072376
-0.020072 -0.013885 0.072054
-0.01969 -0.013697 0.072516
-0.020406 -0.012558 0.07275
-0.019497 -0.012263 0.072106
0.02138 -0.012361 0.07293
0.022238 -0.012402 0.072156
-0.019388 -0.011598 0.072602
-0.019148 -0.010278 0.07218
-0.019569 -0.0099123 0.072178
-0.020038 -0.0077048 0.072428
-0.019402 -0.0073172 0.072156
0.0099901 -0.0070136 0.072292
0.014654 -0.0070612 0.072538
0.0214 -0.0073564 0.072872
-0.019402 -0.0062604 0.0728
-0.018306 -0.006593 0.072624
0.0055636 -0.0060464 0.07203
0.0096127 -0.0060436 0.072314
0.014865 -0.0066498 0.072368
0.015759 -0.0062598 0.072636
0.017412 -0.006849 0.072094
0.018596 -0.006153 0.07216
0.019209 -0.0060386 0.0729
0.020668 -0.0061782 0.072556
-0.019267 -0.005522 0.072394
-0.017804 -0.0052374 0.072206
-0.015436 -0.0050648 0.072096
-0.014035 -0.0054404 0.072144
-0.013287 -0.0054292 0.072228
-0.011784 -0.0054174 0.072988
-0.008275 -0.0059968 0.072874
0.011658 -0.005539 0.07231
0.013063 -0.0055528 0.072954
0.014231 -0.0056766 0.072448
0.016621 -0.0056216 0.072818
0.017376 -0.005901 0.07228
0.019719 -0.0058344 0.07204
-0.017078 -0.004887 0.072818
-0.008588 -0.0047808 0.072038
-0.0035806 -0.0041626 0.072106
-0.0029742 -0.0044868 0.072278
-0.0013477 -0.0041222 0.072326
-0.00052308 -0.0043692 0.07237
0.0005452 -0.0042274 0.072742
0.007093 -0.0048754 0.072274
0.02046 -0.0045744 0.072162
-0.017474 -0.0031894 0.07246
-0.0056284 -0.0036004 0.07245
-0.0015069 -0.0037862 0.072102
0.00050694 -0.0031838 0.072692
0.02123 -0.003255 0.072404
-0.0062338 -0.002567 0.072296
-0.0044436 -0.0028272 0.07279
-0.00079586 -0.0029598 0.072236
0.021254 -0.0027412 0.072436
-0.010299 -0.05004 0.073512
-0.005904 -0.049602 0.073386
-0.004609 -0.049466 0.07332
-0.0032086 -0.049234 0.073368
-0.0027462 -0.04949 0.073468
-0.0016037 -0.049546 0.073368
-0.00067022 -0.049524 0.073544
0.00090698 -0.049146 0.073584
0.0014973 -0.049252 0.073372
0.0020026 -0.04928 0.073716
0.0037986 -0.049376 0.073686
0.0066706 -0.049248 0.073452
0.007132 -0.049332 0.07309
0.0085024 -0.04907 0.073478
0.010386 -0.049066 0.073218
0.011123 -0.049214 0.073872
-0.0075444 -0.048308 0.073998
-0.005505 -0.048314 0.073624
-0.003373 -0.048556 0.07365
-0.0029362 -0.048304 0.073998
-0.0016769 -0.048862 0.073816
-0.0004829 -0.048422 0.07382
0.0001278 -0.048372 0.073746
0.0015671 -0.048466 0.073642
0.0042798 -0.048342 0.07379
0.0056842 -0.048634 0.073236
0.0071966 -0.048386 0.073872
0.0086394 -0.048332 0.073606
0.0093445 -0.048196 0.073786
0.011192 -0.048192 0.073376
-0.013227 -0.047186 0.07362
-0.012259 -0.047562 0.073656
-0.010594 -0.047296 0.073728
-0.0083792 -0.047832 0.073826
-0.0052288 -0.047374 0.073914
0.0019019 -0.04779 0.073912
0.0042288 -0.04785 0.073744
0.0068376 -0.047956 0.073886
0.0079556 -0.047744 0.073836
0.0093319 -0.047738 0.07387
0.011761 -0.047514 0.073634
0.012198 -0.047684 0.073716
0.01355 -0.047292 0.073768
0.014108 -0.047162 0.073724
-0.015295 -0.046148 0.07324
-0.012369 -0.046514 0.073588
-0.01182 -0.046008 0.073424
0.012598 -0.046302 0.073352
0.014352 -0.046636 0.073508
0.016386 -0.046492 0.073738
-0.01347 -0.045266 0.073968
-0.012298 -0.045634 0.073814
-0.01173 -0.045916 0.073956
0.012915 -0.045652 0.073538
0.014881 -0.045474 0.07364
0.015279 -0.045344 0.073644
-0.015084 -0.044162 0.073396
-0.014585 -0.04453 0.0732
-0.013461 -0.044666 0.073584
0.014961 -0.044824 0.07386
0.016349 -0.044792 0.073802
-0.015126 -0.043986 0.073324
-0.013891 -0.04377 0.073482
0.014426 -0.043224 0.073224
0.015184 -0.043656 0.07376
0.016187 -0.04356 0.073566
0.017243 -0.043126 0.07374
-0.016105 -0.04249 0.073694
-0.015663 -0.04253 0.073866
0.016767 -0.042712 0.073938
0.017289 -0.042756 0.07381
0.018943 -0.042402 0.073904
0.01932 -0.042062 0.073632
-0.017696 -0.041672 0.07374
-0.016636 -0.041492 0.073754
0.01929 -0.041746 0.07385
0.02023 -0.041514 0.07315
-0.018084 -0.04048 0.073568
-0.017634 -0.040718 0.073882
0.019839 -0.04084 0.07342
0.020188 -0.040164 0.07387
-0.018481 -0.039782 0.073748
0.019879 -0.039798 0.073862
0.020976 -0.039974 0.07372
0.021112 -0.03979 0.073768
0.02209 -0.03944 0.073848
0.020484 -0.038002 0.07394
0.021534 -0.038892 0.073102
-0.018568 -0.0375 0.07363
0.02044 -0.037636 0.073816
0.021168 -0.037314 0.073376
-0.018355 -0.036928 0.07382
0.020964 -0.036686 0.07333
-0.019929 -0.035712 0.073072
-0.018573 -0.035234 0.073842
0.020644 -0.035558 0.073978
0.021354 -0.035464 0.07367
-0.019406 -0.034406 0.073292
-0.018662 -0.034782 0.073762
0.020454 -0.034556 0.073842
0.021258 -0.034778 0.073702
-0.018534 -0.03341 0.073824
0.019934 -0.03391 0.0738
0.020364 -0.033198 0.073438
0.02145 -0.033944 0.07398
-0.018644 -0.032488 0.07363
-0.016834 -0.032952 0.073224
0.02049 -0.032714 0.073576
0.021172 -0.032398 0.073806
-0.018992 -0.031844 0.073134
-0.020426 -0.030078 0.073838
-0.018595 -0.030134 0.073616
0.020478 -0.030212 0.073266
0.021282 -0.030324 0.073494
-0.019786 -0.029608 0.07321
-0.018677 -0.029736 0.073732
0.02124 -0.029746 0.073806
-0.020048 -0.028234 0.073894
0.020414 -0.028932 0.073014
-0.02031 -0.027972 0.073498
-0.018612 -0.027402 0.073538
0.019969 -0.027434 0.073742
0.02059 -0.027434 0.073816
0.021418 -0.02764 0.073516
