# .PCD v.5 - Point Cloud Data file format
FIELDS x y z rgba
SIZE 4 4 4 4
TYPE F F F U
WIDTH 1304
HEIGHT 1
POINTS 1304
DATA ascii
-0.042685 0.22074 0.27886 4280238961
-0.049987 0.21852 0.26879 4279908195
-0.050245 0.21794 0.26047 4279511883
-0.054268 0.21677 0.25547 4279183173
-0.06482 0.21364 0.24104 4279115063
-0.058041 0.21495 0.23839 4279246388
-0.062209 0.21377 0.23352 4278655796
-0.050319 0.2158 0.22368 4280697706
-0.0063662 0.2241 0.19798 4279841374
-0.01508 0.22179 0.18837 4280038753
-0.013701 0.22176 0.18025 4279578202
-0.0035113 0.22387 0.1774 4280168028
0.082717 0.24161 0.14286 4282812370
-0.037788 0.22619 0.27999 4283077314
-0.045165 0.22418 0.27402 4280172654
-0.040386 0.22502 0.27098 4280105574
-0.04809 0.22296 0.26503 4279907420
-0.056199 0.22029 0.2509 4279313732
-0.061596 0.21879 0.24569 4279182146
-0.0578 0.21896 0.23434 4278655802
-0.047353 0.2207 0.22418 4279314759
-0.015211 0.22666 0.20078 4280038749
-0.013336 0.22671 0.19273 4280631149
-0.012843 0.22614 0.17617 4280174192
-0.0068481 0.22703 0.16443 4279908957
0.0064971 0.22978 0.15751 4279774287
-0.033704 0.2315 0.28092 4282419898
-0.04041 0.22906 0.26674 4279644248
-0.053611 0.22565 0.2596 4279313736
-0.06543 0.22208 0.24483 4279379525
-0.05268 0.22414 0.23124 4279182146
-0.041491 0.22632 0.22521 4280235612
-0.050354 0.22402 0.21952 4280303462
-0.028384 0.22834 0.20695 4279708754
-0.025383 0.22809 0.18683 4280107383
-0.028832 0.22711 0.18226 4280107383
-0.033824 0.22578 0.17753 4280238963
-0.023229 0.22792 0.17071 4280961143
-0.012019 0.23007 0.15966 4279842656
0.029344 0.23896 0.14265 4279845238
0.058924 0.24521 0.12314 4282284997
0.050934 0.24316 0.11387 4283800034
-0.041799 0.23332 0.27053 4279118933
-0.051788 0.23034 0.25995 4279313990
-0.055326 0.22922 0.25506 4279247684
-0.067053 0.22562 0.24041 4279511111
-0.053891 0.22831 0.23501 4278655802
-0.041299 0.23042 0.2211 4280368232
-0.020681 0.2339 0.19571 4280699512
-0.035603 0.22998 0.18536 4279777124
-0.024462 0.23228 0.17871 4280104544
-0.02285 0.23217 0.16662 4280565871
-0.01298 0.23435 0.16365 4279842917
-0.010849 0.23456 0.15561 4280171368
-0.0070812 0.23531 0.15186 4279512658
0.021119 0.2417 0.14615 4279512405
0.039131 0.24544 0.13046 4282149286
0.056838 0.24929 0.11856 4281693114
-0.029556 0.24097 0.27756 4279646052
-0.058437 0.23243 0.25025 4278853181
-0.066351 0.23023 0.24452 4278853181
-0.055216 0.23247 0.23874 4279247939
-0.053622 0.23237 0.23095 4279643469
-0.027946 0.23649 0.19458 4279908710
-0.027714 0.23617 0.18642 4279579231
-0.034022 0.23447 0.18147 4279644763
-0.025148 0.23627 0.17448 4279841627
-0.027072 0.23548 0.16608 4279842403
-0.013544 0.23844 0.15941 4280106089
-0.0052395 0.24015 0.152 4279842650
0.017175 0.24527 0.14575 4279643215
0.048616 0.25199 0.11802 4282283964
0.052155 0.25274 0.11386 4282479802
0.020813 0.25874 0.29846 4280502913
0.023406 0.25875 0.29013 4280042098
0.010052 0.25506 0.28253 4280567667
-0.001401 0.25187 0.2755 4278986314
-0.04537 0.2405 0.26128 4279248457
-0.056392 0.23745 0.25472 4278853181
-0.067331 0.23392 0.24025 4279247939
-0.046487 0.23747 0.216 4281357189
-0.035209 0.23922 0.19753 4280632948
-0.037501 0.23846 0.19311 4280237420
-0.036603 0.2383 0.18513 4279907426
-0.032458 0.23897 0.17757 4279644248
-0.028279 0.23934 0.16182 4280171368
-0.020006 0.24108 0.15457 4280567667
-0.014103 0.24238 0.15107 4281950867
-0.002401 0.24511 0.14808 4280567920
0.014917 0.24909 0.14127 4279840340
0.018777 0.24955 0.12463 4282085297
0.051342 0.2571 0.10941 4283994836
0.019209 0.26332 0.30248 4281951643
0.0067848 0.25945 0.29051 4280105574
-0.0047665 0.25615 0.28335 4279841370
-0.001469 0.25608 0.27108 4278984767
-0.057474 0.24116 0.25035 4278721595
-0.066755 0.23801 0.2363 4278786613
-0.055791 0.24031 0.23043 4279183948
-0.053008 0.24054 0.22287 4280237928
-0.045798 0.24169 0.21202 4281160585
-0.040333 0.24264 0.20481 4280172400
-0.046795 0.24081 0.19973 4280303986
-0.040891 0.2417 0.18852 4280104805
-0.04363 0.24065 0.18008 4279578200
-0.034418 0.24261 0.17322 4279841109
-0.036015 0.24188 0.16494 4279709786
-0.031715 0.24265 0.15735 4280566640
-0.021066 0.24502 0.15033 4282345372
0.045034 0.26029 0.11338 4282545334
0.017064 0.26776 0.30635 4280371835
0.0097952 0.26516 0.2956 4280238708
-0.015392 0.25758 0.27646 4279250258
-0.057324 0.24574 0.2544 4279181632
-0.064482 0.24231 0.2287 4279184201
-0.053983 0.24479 0.22668 4279580247
-0.05203 0.24459 0.21493 4280633466
-0.050498 0.24454 0.20714 4280501626
-0.046408 0.24497 0.19572 4280104806
-0.057119 0.24183 0.18613 4279841374
-0.047335 0.24396 0.17953 4279775577
-0.045353 0.24412 0.17179 4279972695
-0.035261 0.24653 0.16902 4279578452
-0.034134 0.24649 0.16108 4279775834
-0.022782 0.24879 0.14604 4281161873
-0.0020218 0.25355 0.1314 4281425813
0.12155 0.28395 0.098992 4283935984
0.0072396 0.26979 0.30377 4280173423
0.016542 0.27194 0.30167 4280832129
-0.046297 0.25323 0.26089 4279181885
-0.055333 0.24894 0.23041 4279249734
-0.053064 0.24881 0.21873 4281028218
-0.049181 0.24937 0.21134 4280435573
-0.049732 0.24858 0.19917 4280235622
-0.056934 0.2459 0.18215 4279512659
-0.040041 0.24943 0.16438 4279446612
-0.034184 0.25063 0.15699 4280170592
-0.030664 0.25139 0.15333 4281093503
-0.02291 0.25298 0.14192 4280370561
-0.01101 0.25592 0.13889 4280898960
0.009282 0.27534 0.30868 4280500841
0.0048672 0.27342 0.29867 4279777124
-0.01017 0.26864 0.2862 4279577682
-0.012373 0.26771 0.28135 4279577161
-0.018914 0.26561 0.27551 4279248711
-0.048134 0.25678 0.2563 4279049785
-0.051031 0.25571 0.25157 4279115577
-0.061511 0.25261 0.24527 4278852920
-0.056214 0.25349 0.23827 4278852405
-0.05906 0.25172 0.2216 4280172390
-0.056275 0.25153 0.20608 4279775840
-0.049684 0.25265 0.19512 4280039012
-0.054286 0.25083 0.18247 4279578455
-0.045037 0.25274 0.17174 4279578964
-0.038081 0.25392 0.15653 4279445582
-0.023843 0.25723 0.14586 4279580784
-0.014739 0.25936 0.13852 4280303221
-0.012768 0.25962 0.13048 4280699011
0.055673 0.27642 0.078829 4284265983
0.067109 0.27936 0.074655 4284462332
0.067241 0.2793 0.06581 4284134137
0.058104 0.27687 0.061345 4278588181
0.065484 0.27874 0.052548 4284592377
0.0070616 0.27975 0.31248 4282021287
0.01215 0.28079 0.30936 4280500325
-0.012542 0.27356 0.29856 4278920515
0.00035037 0.27679 0.29746 4280763504
-0.019844 0.27084 0.28808 4280104796
-0.031132 0.26673 0.27259 4278986055
-0.042972 0.26284 0.26152 4278853438
-0.045217 0.26192 0.25688 4279378749
-0.059464 0.25743 0.24564 4278787642
-0.057008 0.25729 0.23401 4278984506
-0.063512 0.25451 0.21675 4279117647
-0.069087 0.25253 0.20785 4279709786
-0.06021 0.25428 0.19743 4279513437
-0.058396 0.25416 0.18581 4280238444
-0.051794 0.25538 0.17481 4279578452
-0.056252 0.254 0.17028 4279643216
-0.046315 0.25633 0.16355 4279510860
-0.03518 0.25901 0.1568 4279050564
-0.034411 0.25891 0.14883 4279644499
-0.0233 0.26134 0.13368 4279974001
0.011297 0.27002 0.11552 4281754020
0.0069522 0.26876 0.11108 4282676145
0.056663 0.2816 0.091958 4285579517
0.057864 0.28178 0.083228 4286893567
0.061304 0.28242 0.056932 4285249007
0.067292 0.28396 0.048088 4284460267
0.067193 0.28391 0.039244 4284130793
-0.0058459 0.28075 0.30898 4279908449
-0.00088377 0.28178 0.30589 4279118408
-0.017803 0.27627 0.29282 4279709776
-0.024339 0.27374 0.28263 4280633456
-0.037323 0.26975 0.27528 4279776863
-0.035434 0.26964 0.26734 4278722881
-0.051567 0.26421 0.25134 4278261298
-0.064136 0.26013 0.24058 4278984767
-0.067183 0.25875 0.23195 4279445318
-0.065093 0.25856 0.22039 4279775061
-0.073709 0.25593 0.21487 4279380558
-0.071846 0.25575 0.2034 4279709786
-0.070425 0.25571 0.19578 4279578202
-0.057931 0.25834 0.18187 4279843689
-0.062167 0.25698 0.17735 4280037212
-0.057633 0.25804 0.17401 4279577428
-0.046776 0.26066 0.16744 4279511375
-0.023802 0.26545 0.12954 4279644509
-0.0034006 0.27055 0.11459 4282151338
0.0019777 0.27191 0.11076 4284983265
0.085238 0.29427 0.10193 4283335618
0.051419 0.28484 0.087382 4292804084
0.04639 0.28335 0.07856 4293394423
0.066053 0.2884 0.043653 4285448439
-0.010662 0.28359 0.30327 4279642697
-0.01956 0.27995 0.28802 4280565601
-0.02984 0.27666 0.28123 4280106075
-0.033548 0.27493 0.27191 4279578963
-0.04816 0.26982 0.25612 4279182657
-0.055924 0.26702 0.24627 4278656059
-0.069624 0.26285 0.23939 4279050817
-0.072014 0.26111 0.22302 4279774547
-0.075404 0.2599 0.21845 4279773775
-0.070227 0.26018 0.19969 4279379021
-0.067378 0.26055 0.19228 4279775840
-0.060173 0.26216 0.18546 4279645283
-0.058033 0.26199 0.16997 4279379275
-0.05118 0.26355 0.16289 4279181891
-0.046971 0.26456 0.15941 4279247684
-0.035705 0.26707 0.1446 4278721079
-0.025793 0.26968 0.14149 4279380043
0.0057249 0.27735 0.10677 4282745791
0.072623 0.29576 0.1058 4287027199
0.044984 0.28786 0.091481 4292474618
0.040476 0.28654 0.087015 4293853183
0.050991 0.28921 0.069923 4293654521
0.036004 0.28499 0.061155 4294967291
-0.0052425 0.29054 0.31341 4282417598
-0.022636 0.28431 0.29577 4279378750
-0.040067 0.27782 0.2745 4279182654
-0.041237 0.27682 0.26589 4280761944
-0.047513 0.27469 0.26032 4279447113
-0.055845 0.27196 0.25437 4279315273
-0.066708 0.26852 0.24796 4278854206
-0.069205 0.26694 0.23543 4279906388
-0.076163 0.26364 0.21433 4279248464
-0.071858 0.26439 0.20722 4279117386
-0.072551 0.26351 0.19535 4279313481
-0.06687 0.26471 0.18838 4279972447
-0.058642 0.26664 0.18168 4279381083
-0.052228 0.26771 0.16669 4279313479
-0.027478 0.27332 0.13322 4279379525
-0.019941 0.27519 0.1257 4279511121
0.035948 0.29011 0.095424 4290968063
0.03347 0.28926 0.086768 4293132031
0.062029 0.29685 0.03485 4283862948
-0.0075442 0.2949 0.31712 4279643215
-0.0052936 0.29477 0.30892 4279710799
-0.01475 0.29157 0.30206 4279773767
-0.018294 0.28977 0.2925 4278656310
-0.035104 0.28407 0.27983 4280037708
-0.048319 0.27981 0.27248 4279115572
-0.053135 0.27806 0.26722 4278786612
-0.048013 0.27924 0.26428 4278194990
-0.068787 0.2728 0.2555 4279182918
-0.077593 0.2699 0.24954 4279314757
-0.072502 0.2711 0.24666 4278919999
-0.077404 0.2688 0.23372 4279709009
-0.083212 0.2663 0.22081 4279643221
-0.084653 0.26537 0.21276 4279972187
-0.07779 0.26713 0.21007 4279577428
-0.082518 0.26528 0.20148 4279314250
-0.081429 0.26515 0.19391 4279181893
-0.070138 0.26779 0.18394 4279444555
-0.058597 0.27073 0.17769 4279445576
-0.051884 0.27192 0.16273 4279379270
-0.047062 0.27297 0.15534 4279313216
-0.03552 0.27554 0.13652 4278984767
-0.025134 0.27825 0.12932 4279314256
-0.02466 0.27814 0.12127 4279839825
-0.011692 0.28174 0.11807 4280104546
0.0051385 0.28624 0.10667 4281555861
0.017604 0.28971 0.1031 4283533251
0.015458 0.28893 0.09459 4289655551
0.027181 0.29213 0.086543 4292476927
0.025586 0.29154 0.07801 4292606713
0.030737 0.29291 0.069595 4292542206
0.025882 0.29148 0.065291 4293328638
0.03549 0.2941 0.048245 4294966525
-0.011501 0.29875 0.32036 4282551247
-0.0098394 0.29844 0.31203 4279775055
-0.020316 0.29448 0.30055 4279248964
-0.025087 0.29266 0.29501 4279050808
-0.032359 0.28973 0.28466 4279445051
-0.065871 0.27829 0.26013 4279774283
-0.081976 0.27253 0.24457 4279313732
-0.079499 0.27269 0.23719 4279642955
-0.078774 0.27235 0.22945 4279643985
-0.085312 0.26961 0.21647 4279906394
-0.084631 0.26931 0.20883 4279840600
-0.082656 0.26919 0.19753 4279116098
-0.079078 0.2698 0.19035 4279050307
-0.07387 0.27112 0.18725 4279247686
-0.070261 0.27177 0.17997 4279378762
-0.037475 0.27977 0.14831 4279115323
-0.031211 0.28102 0.13283 4279313216
-0.024247 0.28279 0.12531 4279315026
-0.020427 0.28367 0.11747 4280039002
0.0092729 0.29189 0.10267 4282478505
0.014722 0.29322 0.090328 4290115583
0.024764 0.29588 0.073722 4291886591
0.034633 0.29852 0.043945 4294701820
-0.0099303 0.30346 0.31633 4280038233
-0.026985 0.29701 0.29874 4279381580
-0.030018 0.29532 0.28942 4279642945
-0.046198 0.28963 0.27702 4279641921
-0.057905 0.28537 0.26598 4279774541
-0.061618 0.28391 0.26105 4279775055
-0.068195 0.28158 0.25551 4279643469
-0.081932 0.27708 0.24847 4279708237
-0.091027 0.27372 0.23866 4279115584
-0.0795 0.27664 0.23319 4279642444
-0.08712 0.27352 0.21997 4279906393
-0.085444 0.27351 0.21251 4279577429
-0.090018 0.27164 0.20398 4279051078
-0.084198 0.27315 0.2011 4279378756
-0.082092 0.27332 0.19371 4278918205
-0.081768 0.27298 0.18603 4279116092
-0.070191 0.27623 0.18384 4279247678
-0.067265 0.2767 0.17643 4279313732
-0.060595 0.2785 0.1734 4279182146
-0.026951 0.28654 0.1291 4279313218
-0.020624 0.28816 0.12147 4279840848
-0.016637 0.28923 0.11768 4279975011
-0.0064226 0.29203 0.11011 4280238189
0.0039567 0.29472 0.094073 4289064447
0.017112 0.29853 0.090377 4289458431
0.024018 0.30021 0.065213 4292213759
0.031335 0.30233 0.061013 4294441471
0.043193 0.30575 0.048121 4294705151
0.051652 0.30822 0.039345 4294966783
-0.013915 0.30729 0.31954 4283078105
-0.015949 0.30582 0.31024 4281024869
-0.02528 0.30249 0.30342 4279775569
-0.030708 0.3004 0.2977 4279842389
-0.03581 0.29842 0.29213 4280368225
-0.035255 0.29785 0.28382 4279183432
-0.044654 0.29456 0.27733 4279380297
-0.059703 0.28953 0.26959 4280103766
-0.064197 0.2878 0.26446 4279840594
-0.067205 0.28653 0.25971 4279775571
-0.078179 0.28281 0.25322 4279511883
-0.085287 0.27999 0.24374 4279247170
-0.08094 0.28073 0.23678 4279378756
-0.084768 0.27898 0.22816 4279116871
-0.088735 0.27749 0.2235 4279446096
-0.087562 0.27731 0.21596 4279774808
-0.085252 0.27726 0.20475 4278787906
-0.089146 0.27583 0.20023 4279180863
-0.083936 0.27719 0.19723 4279115069
-0.079509 0.27786 0.18632 4279050299
-0.071564 0.27986 0.1797 4279181885
-0.046301 0.28586 0.14735 4278720820
-0.037603 0.28803 0.13622 4279049785
-0.030043 0.29017 0.13285 4279247164
-0.025528 0.29126 0.12513 4279313224
0.0040343 0.29939 0.098193 4286235639
0.0084178 0.30054 0.090042 4290509820
0.012738 0.30176 0.086005 4290444030
0.014333 0.30211 0.077669 4291097599
0.023546 0.30468 0.060949 4294113791
0.043698 0.31062 0.039455 4293655546
-0.014006 0.31149 0.31507 4280301405
-0.030284 0.30589 0.30631 4280368486
-0.040811 0.30136 0.29079 4280171360
-0.041205 0.30048 0.28229 4278854983
-0.052006 0.2967 0.27548 4279841623
-0.059809 0.29354 0.26542 4280039002
-0.084372 0.28483 0.24782 4279840080
-0.082094 0.28433 0.23256 4279049791
-0.089634 0.28169 0.22715 4279445836
-0.0882 0.28158 0.21966 4279642961
-0.087988 0.28112 0.21196 4279708500
-0.085248 0.28122 0.20083 4278723136
-0.083172 0.2814 0.19344 4278985024
-0.073742 0.28365 0.18323 4279115831
-0.070701 0.28417 0.17588 4279181116
-0.059778 0.28658 0.15771 4278984251
-0.048041 0.28984 0.1511 4278720820
-0.037685 0.29211 0.12819 4279247170
-0.023144 0.29631 0.12122 4279642446
-0.0036374 0.30203 0.11432 4279777632
-0.0015292 0.30236 0.10205 4280436609
0.0026716 0.30346 0.093953 4287748863
0.0080864 0.30496 0.08583 4289260785
0.012796 0.30632 0.081787 4290772471
0.014274 0.30665 0.073445 4290639359
0.044859 0.31574 0.043728 4292607484
-0.02497 0.31303 0.31632 4279909479
-0.022725 0.31291 0.30828 4280500332
-0.028038 0.31078 0.30255 4280764274
-0.046749 0.30395 0.2892 4279710295
-0.04796 0.30281 0.28056 4280300884
-0.056524 0.29969 0.27433 4280105569
-0.061333 0.29779 0.26908 4279907420
-0.063898 0.29662 0.2644 4279578452
-0.068815 0.29471 0.25922 4280105053
-0.081757 0.29024 0.2523 4279645791
-0.088292 0.28752 0.24298 4279643730
-0.08215 0.28917 0.24036 4279445836
-0.087244 0.28724 0.23538 4279247686
-0.090289 0.28541 0.22309 4279116102
-0.08813 0.28555 0.21575 4279445067
-0.087467 0.28524 0.20813 4279445067
-0.094933 0.28215 0.19536 4278985024
-0.084066 0.2851 0.1894 4279115839
-0.083155 0.28495 0.18184 4279246395
-0.07317 0.28786 0.17938 4279246649
-0.071999 0.28782 0.17178 4279115317
-0.039309 0.29629 0.13599 4279049785
-0.027067 0.29968 0.12494 4278984259
-0.0085891 0.30493 0.10988 4279842403
0.0021918 0.30807 0.10219 4279777389
0.0018036 0.30769 0.089745 4288145407
0.013087 0.31087 0.069209 4291098623
0.040643 0.31922 0.048056 4293263103
-0.030998 0.31524 0.31027 4281621130
-0.032554 0.31431 0.30556 4280698741
-0.05601 0.30503 0.28263 4279774801
-0.071605 0.29885 0.26658 4280303976
-0.086637 0.29262 0.24721 4279184467
-0.094336 0.2895 0.23774 4279577937
-0.09204 0.28964 0.23045 4279181377
-0.090468 0.28929 0.21913 4279247943
-0.089094 0.28919 0.21166 4279050564
-0.087363 0.28923 0.20424 4279247943
-0.086478 0.28902 0.19668 4279116098
-0.084619 0.28892 0.18542 4279708744
-0.083606 0.28881 0.17789 4278983992
-0.073153 0.29192 0.17546 4279049779
-0.066957 0.2931 0.1607 4279444028
-0.048889 0.2983 0.15092 4278852406
-0.015083 0.30766 0.11762 4279181124
0.00029594 0.31197 0.097925 4285909243
0.0013316 0.31205 0.085559 4289788671
0.0011919 0.31187 0.077289 4289853691
0.010666 0.31479 0.073319 4289918715
0.039459 0.32361 0.043742 4292081916
0.04871 0.3265 0.034947 4291491320
-0.037209 0.31735 0.30423 4280830839
-0.041109 0.31563 0.29895 4280764274
-0.048014 0.31293 0.29293 4280041837
-0.05086 0.31158 0.28802 4280039002
-0.05459 0.30996 0.28293 4279841627
-0.060199 0.30772 0.27741 4280039521
-0.067947 0.30478 0.27144 4280237669
-0.071403 0.30292 0.26254 4280303207
-0.075752 0.30114 0.25752 4279776088
-0.088311 0.29602 0.24287 4280369000
-0.092191 0.29412 0.23425 4279644244
-0.09081 0.29398 0.22676 4279313477
-0.0885 0.29388 0.21558 4279445322
-0.087893 0.29355 0.20796 4279314765
-0.092471 0.29155 0.19949 4278985291
-0.088118 0.29247 0.19252 4279247686
-0.084792 0.29287 0.18151 4278853947
-0.073778 0.29579 0.17145 4278852400
-0.062365 0.29907 0.1651 4279115063
-0.062421 0.29867 0.15728 4279180601
-0.052956 0.30154 0.1544 4279312187
-0.047817 0.30285 0.14703 4278720305
-0.04101 0.30441 0.13179 4278983477
-0.028179 0.30824 0.12478 4279181371
-0.010552 0.3134 0.10969 4279841370
-0.0063091 0.31465 0.10582 4279581800
-0.00048328 0.31641 0.10199 4281554823
-0.00025146 0.3163 0.093735 4287749887
0.00041697 0.31628 0.081368 4290509823
0.010654 0.31938 0.069115 4290179056
-0.026796 0.32589 0.31128 4281358473
-0.033751 0.3231 0.30509 4280833416
-0.058127 0.31363 0.2861 4279710809
-0.066359 0.31047 0.27991 4280237155
-0.070951 0.30854 0.2747 4279974503
-0.07269 0.30722 0.2662 4280500332
-0.081049 0.30406 0.26023 4279579230
-0.087679 0.30083 0.24687 4280568181
-0.095357 0.29763 0.23742 4280435307
-0.093759 0.29754 0.23 4279841627
-0.092283 0.29744 0.22255 4279908449
-0.09013 0.29731 0.21137 4279710037
-0.093491 0.29568 0.2031 4279645277
-0.096329 0.294 0.19119 4279051079
-0.08121 0.29874 0.18969 4279182403
-0.085583 0.29707 0.18519 4278787899
-0.084663 0.29692 0.17765 4278458417
-0.076304 0.29945 0.17494 4278786607
-0.062341 0.30321 0.16115 4278983477
-0.021136 0.31475 0.11716 4279247164
-0.014924 0.31665 0.11348 4279050818
-0.010829 0.31776 0.10555 4280306295
-0.006597 0.31903 0.10166 4281163149
-0.0011016 0.32071 0.097793 4286237172
-0.010138 0.3177 0.093318 4287486719
-0.00061847 0.3207 0.089559 4287551224
0.0067263 0.32293 0.081497 4289851903
-0.0001443 0.32064 0.077195 4290837247
0.037998 0.3327 0.043704 4291755007
0.044346 0.33474 0.039304 4291558907
-0.029236 0.33014 0.31484 4281489805
-0.043606 0.32432 0.30237 4281359246
-0.048969 0.32164 0.29255 4280961651
-0.075428 0.31142 0.27353 4280501361
-0.08254 0.30825 0.2638 4280172651
-0.083754 0.30713 0.25558 4280238444
-0.088853 0.30506 0.25048 4280566895
-0.097542 0.30178 0.24465 4280501873
-0.091824 0.30338 0.242 4281159804
-0.094939 0.3017 0.23357 4280304237
-0.094165 0.30135 0.22599 4280106603
-0.1022 0.29835 0.22059 4281488256
-0.093106 0.30084 0.21463 4280633205
-0.10006 0.29823 0.20954 4279777896
-0.08828 0.30113 0.19624 4279512407
-0.077243 0.30386 0.1825 4278524469
-0.075284 0.30386 0.17117 4278523435
-0.052891 0.30996 0.14644 4278851891
-0.041017 0.31356 0.13966 4278851891
-0.03221 0.31616 0.13243 4278983477
-0.030507 0.31644 0.12454 4278982959
-0.012255 0.32196 0.10952 4279642447
-0.0023835 0.325 0.10182 4282283432
-0.00063037 0.32539 0.09365 4286566911
-0.00071305 0.3252 0.085397 4287551999
-0.0009094 0.32494 0.073025 4290640127
0.0092399 0.32823 0.069034 4290772222
0.042983 0.33913 0.04361 4290178548
-0.029442 0.33428 0.31041 4281886104
-0.043395 0.32854 0.29814 4281161606
-0.057319 0.32287 0.28617 4281093498
-0.064187 0.32009 0.28032 4279776863
-0.073751 0.316 0.26985 4280435826
-0.086026 0.31103 0.25895 4281752970
-0.091649 0.30805 0.24589 4279844713
-0.09695 0.3059 0.24084 4279446357
-0.094853 0.30567 0.22967 4279646046
-0.10237 0.30221 0.21669 4279973989
-0.09293 0.30486 0.21076 4280106861
-0.089335 0.30554 0.2037 4280041582
-0.099134 0.30196 0.19824 4279448673
-0.078 0.30813 0.18621 4278985024
-0.087023 0.30485 0.18105 4279245623
-0.07734 0.30768 0.17471 4278720814
-0.066142 0.31103 0.16841 4278720559
-0.052439 0.31468 0.15039 4278917684
-0.053468 0.31399 0.14242 4278786098
-0.043499 0.31701 0.13543 4278654512
-0.042646 0.31701 0.12757 4278785838
-0.032795 0.32003 0.12033 4278983216
-0.021332 0.32374 0.11707 4278524464
-0.01587 0.32544 0.11335 4279049016
-0.012881 0.32622 0.10537 4280696942
-0.0039979 0.32898 0.097598 4285777404
-0.0017851 0.32955 0.08945 4287290111
-0.0020358 0.32931 0.081206 4288210171
-0.045454 0.33283 0.30174 4281162895
-0.051723 0.32976 0.2917 4281094531
-0.068776 0.32294 0.27911 4279644245
-0.075171 0.3203 0.27347 4279776604
-0.084275 0.31635 0.26327 4281422721
-0.085876 0.31506 0.25497 4280437117
-0.091085 0.31289 0.24987 4281095304
-0.09923 0.30971 0.24417 4279972187
-0.097636 0.3096 0.23677 4280558919
-0.095925 0.30925 0.22554 4280303213
-0.10387 0.3062 0.22017 4278258967
-0.096458 0.30847 0.21775 4280500078
-0.10311 0.30588 0.21269 4280171368
-0.096433 0.30763 0.20626 4279710817
-0.094486 0.30751 0.19514 4279382621
-0.083176 0.31115 0.1931 4279118674
-0.086085 0.30991 0.18881 4278919231
-0.086971 0.3089 0.17719 4279444028
-0.065203 0.3155 0.16458 4279049270
-0.044271 0.32136 0.13928 4278786098
-0.043631 0.32126 0.13141 4278786098
-0.031173 0.32507 0.1204 4278721328
-0.020066 0.32859 0.11306 4279181371
-0.013374 0.33074 0.10938 4279640905
-0.0021224 0.33434 0.10176 4282675620
-0.0030016 0.33385 0.093488 4286894591
-0.0025395 0.33384 0.085274 4288276223
0.000898 0.33494 0.081247 4288275455
0.0072663 0.33691 0.068946 4288734710
0.010111 0.33783 0.064815 4289129207
0.016606 0.33998 0.060676 4289983741
0.043032 0.34883 0.043551 4289128699
0.04991 0.35115 0.039122 4290377727
-0.048416 0.33726 0.30929 4281357958
-0.038782 0.33981 0.30346 4281227399
-0.045049 0.33713 0.29757 4281425039
-0.055944 0.3328 0.29053 4280631913
-0.062214 0.33014 0.28479 4281289843
-0.06613 0.32833 0.27971 4280039521
-0.075359 0.32426 0.26934 4279777118
-0.07897 0.32259 0.26446 4280567412
-0.093433 0.31603 0.24538 4278206802
-0.098694 0.31383 0.24036 4278914850
-0.09754 0.31358 0.23287 4280897660
-0.094248 0.3138 0.22196 4279176473
-0.094905 0.31298 0.21414 4278258969
-0.094845 0.31243 0.20649 4278193966
-0.10061 0.30988 0.1979 4278191879
-0.084447 0.31476 0.18901 4279050818
-0.08889 0.31297 0.18451 4278325029
-0.077898 0.3161 0.17454 4278918968
-0.077108 0.31594 0.16694 4278786612
-0.063043 0.32041 0.16089 4279049270
-0.056497 0.32229 0.1538 4279114808
-0.051834 0.32354 0.14642 4278720305
-0.039465 0.32701 0.12774 4278851891
-0.024429 0.33178 0.11679 4278459185
0.0031413 0.3408 0.10198 4281820565
-0.0027136 0.33868 0.097581 4285710067
-0.0010113 0.33909 0.089407 4287881215
0.0056858 0.34124 0.081336 4288867071
0.010781 0.34281 0.068958 4289063423
0.048475 0.35555 0.04345 4288141814
-0.056103 0.3386 0.3029 4280766336
-0.047345 0.34134 0.30109 4280895338
-0.070593 0.3312 0.27852 4280500586
-0.074062 0.32954 0.27362 4278337363
-0.086041 0.32445 0.26273 4278519577
-0.081463 0.32535 0.25586 4280502649
-0.088028 0.32263 0.25043 4278192933
-0.10095 0.31764 0.24368 4278197018
-0.093981 0.3198 0.24131 4278198044
-0.099356 0.31754 0.2363 4278196758
-0.097755 0.31746 0.22892 4279306515
-0.10556 0.31405 0.21973 4279049518
-0.096261 0.31707 0.21768 4278982945
-0.10343 0.31393 0.20874 4278854986
-0.08554 0.31972 0.20419 4278392604
-0.09373 0.31655 0.19898 4278976777
-0.082257 0.32035 0.19701 4279176230
-0.090346 0.31698 0.18806 4279050046
-0.089217 0.3169 0.1806 4278980381
-0.07936 0.32014 0.17815 4279247678
-0.077857 0.32022 0.17065 4278202689
-0.071395 0.32207 0.16374 4278190106
-0.067584 0.3232 0.16032 4278983217
-0.055317 0.32693 0.14996 4278851112
-0.045875 0.32956 0.1351 4278588719
-0.033947 0.33342 0.12812 4278786098
-0.029681 0.33477 0.12444 4278655280
-0.025797 0.33599 0.12069 4278524464
-0.011982 0.34055 0.11347 4278918199
0.0054778 0.3463 0.10205 4280499302
0.0078542 0.34693 0.093835 4285774058
0.0041827 0.34556 0.089549 4286892793
0.0071122 0.3465 0.085494 4287221758
0.014782 0.34897 0.073162 4287551224
0.0046478 0.34539 0.068849 4287353588
0.016158 0.34935 0.064803 4287682552
0.016618 0.34944 0.056422 4289655551
0.030593 0.35427 0.052164 4289128703
-0.051153 0.34547 0.30838 4279644756
-0.042639 0.34814 0.30651 4280302687
-0.047207 0.34555 0.29686 4279843164
-0.056818 0.34157 0.29017 4279843425
-0.063345 0.33875 0.28437 4281027699
-0.079664 0.33194 0.27217 4279107605
-0.086029 0.32845 0.25871 4278849565
-0.08582 0.32779 0.25086 4278785560
-0.092611 0.32496 0.24544 4278853408
-0.101 0.32157 0.23975 4278330657
-0.099151 0.32157 0.23243 4278589210
-0.098615 0.32112 0.22485 4279572257
-0.094348 0.32116 0.20647 4278196504
-0.092426 0.32103 0.19533 4278195987
-0.090873 0.32083 0.18412 4278984253
-0.082522 0.32358 0.18151 4279510573
-0.077902 0.32476 0.17445 4278191882
-0.071276 0.32669 0.16758 4278192652
-0.058792 0.33051 0.15738 4278391847
-0.057374 0.33045 0.14579 4279720055
-0.048583 0.33323 0.13877 4278522662
-0.036684 0.33684 0.12389 4278786866
0.0062962 0.35141 0.10621 4280035657
0.0027905 0.34986 0.093604 4284128718
0.017297 0.3549 0.089962 4284655062
0.010575 0.35244 0.085562 4284917979
0.01018 0.35193 0.056394 4289392127
0.045433 0.3643 0.043432 4285641439
-0.047984 0.35127 0.3092 4279447377
-0.040894 0.35345 0.30692 4280171100
-0.066156 0.3418 0.27951 4278389024
-0.077876 0.33663 0.26854 4280895599
-0.085262 0.3335 0.26279 4279112737
-0.085263 0.33274 0.25487 4280896374
-0.09273 0.32962 0.24926 4279112476
-0.09876 0.32668 0.24017 4278522135
-0.099455 0.32542 0.22847 4278721552
-0.097513 0.3255 0.22117 4278987556
-0.08752 0.32854 0.21534 4278653986
-0.089475 0.32723 0.20727 4278719273
-0.094575 0.32509 0.20256 4280363572
-0.091768 0.32531 0.19156 4280036672
-0.086418 0.32699 0.18856 4279839801
-0.080357 0.32846 0.17792 4278850333
-0.075578 0.32973 0.17085 4278192906
-0.069655 0.33144 0.16386 4279119150
-0.059313 0.33456 0.15337 4279046695
-0.058034 0.33448 0.14177 4278984239
-0.052704 0.33606 0.13443 4279702824
-0.040321 0.34035 0.13152 4278210661
-0.032906 0.34272 0.12412 4279049779
-0.028002 0.34434 0.12046 4278919475
-0.020005 0.34708 0.11696 4279049779
0.022748 0.36182 0.09856 4282675353
0.012265 0.35772 0.081402 4286036460
-0.043432 0.35764 0.31039 4279381581
-0.037128 0.35955 0.30788 4279776342
-0.041235 0.35752 0.30252 4279777371
-0.049472 0.35349 0.29194 4279051071
-0.056031 0.35057 0.2861 4278783273
-0.064332 0.34701 0.2799 4280896628
-0.072503 0.34351 0.27381 4278784539
-0.082445 0.33937 0.26737 4279046428
-0.087945 0.33652 0.25814 4278916383
-0.094307 0.33302 0.24496 4278391577
-0.10287 0.32947 0.23924 4278916634
-0.095755 0.33178 0.23688 4279837740
-0.10129 0.32938 0.23188 4280034610
-0.099761 0.32929 0.22452 4280166197
-0.0979 0.32935 0.21721 4281749608
-0.087597 0.33256 0.2114 4280697681
-0.096243 0.32907 0.20604 4278857009
-0.094241 0.32924 0.19875 4279969071
-0.084446 0.33231 0.19266 4278786346
-0.081574 0.33286 0.18539 4278194718
-0.080656 0.33247 0.17399 4278193686
-0.070328 0.33603 0.17149 4279573027
-0.068996 0.33587 0.16002 4281160025
-0.060712 0.33869 0.15708 4279839283
-0.057768 0.33938 0.14958 4278851620
-0.056359 0.33936 0.13798 4278196262
-0.00966 0.35533 0.11349 4278525235
0.028335 0.36902 0.11152 4279247163
0.023102 0.36668 0.094312 4283667395
0.020013 0.36524 0.077357 4286102769
0.011202 0.36198 0.073003 4285840881
0.020288 0.36522 0.068948 4285907696
0.027535 0.36776 0.060563 4287879935
0.025222 0.36686 0.052099 4287682553
-0.037489 0.36364 0.30346 4280169289
-0.050088 0.35834 0.29589 4280499021
-0.091643 0.33991 0.26115 4278195226
-0.087852 0.34057 0.25416 4278458138
-0.092535 0.33842 0.24919 4278719249
-0.094432 0.33698 0.24098 4279113498
-0.094146 0.33605 0.22942 4280106591
-0.099762 0.33328 0.22063 4279578953
-0.092051 0.33555 0.2144 4278984747
-0.091316 0.33523 0.20685 4278853405
-0.09648 0.333 0.20214 4278655264
-0.087993 0.3359 0.19973 4278720542
-0.081487 0.33752 0.18921 4278720034
-0.083901 0.33611 0.18117 4278390808
-0.075511 0.33875 0.17463 4278193679
-0.072527 0.3394 0.16729 4278196511
-0.066148 0.34134 0.16031 4278196519
-0.061385 0.3427 0.15306 4278194209
-0.061238 0.34237 0.14528 4280097846
-0.050127 0.34596 0.13457 4280300366
-0.011803 0.35936 0.11741 4279511629
0.028323 0.37365 0.10297 4279575620
0.018358 0.36977 0.094093 4283930053
0.022761 0.37122 0.085819 4284982747
0.028378 0.37321 0.081742 4285114594
0.022029 0.37068 0.068937 4285972465
0.025935 0.37207 0.064755 4286367997
0.022343 0.37068 0.056297 4283277015
-0.040057 0.36784 0.30694 4279774270
-0.03789 0.36773 0.29904 4278922293
-0.047939 0.36336 0.29221 4280369769
-0.058245 0.35891 0.28541 4279767067
-0.045604 0.36292 0.28029 4278784804
-0.073466 0.35173 0.26941 4278850336
-0.082681 0.34737 0.25924 4280633711
-0.096383 0.34096 0.24439 4278457871
-0.098079 0.33959 0.23628 4280236098
-0.091328 0.34115 0.22606 4280237661
-0.093736 0.3399 0.22173 4278788405
-0.089545 0.34055 0.21095 4278785837
-0.090408 0.33963 0.20311 4278917420
-0.086937 0.34038 0.19601 4279049514
-0.083695 0.34081 0.18498 4278786081
-0.084339 0.34006 0.17723 4278325015
-0.072295 0.34413 0.17114 4278326831
-0.073044 0.3434 0.16332 4279111707
-0.063828 0.34644 0.15664 4278917424
-0.071419 0.34339 0.15193 4278522916
-0.066184 0.34516 0.14862 4278525486
-0.045417 0.3524 0.13889 4279705923
-0.021596 0.36053 0.12078 4279840842
-0.0027063 0.36731 0.11383 4279774801
0.026938 0.37791 0.098626 4280434273
0.026565 0.37758 0.090133 4284521163
0.026948 0.37748 0.077435 4284785368
0.024298 0.37638 0.068932 4282751951
0.024388 0.37632 0.060488 4280000969
0.017114 0.37358 0.056269 4283406037
-0.032269 0.37564 0.30899 4279123015
0.038359 0.40298 0.32369 4282470242
-0.049086 0.36712 0.28767 4278194713
-0.062559 0.36138 0.28014 4279907417
-0.070671 0.35777 0.27406 4278195746
-0.084029 0.35171 0.26283 4278720034
-0.089714 0.34869 0.25362 4279972956
-0.093468 0.34647 0.24496 4278327315
-0.096271 0.34501 0.24047 4279247648
-0.099348 0.34311 0.23211 4278720295
-0.092816 0.34529 0.22958 4279380280
-0.092391 0.34479 0.22193 4278326564
-0.086034 0.34598 0.20766 4279049006
-0.087515 0.34482 0.1997 4278587692
-0.086665 0.34459 0.19216 4278390567
-0.082618 0.34587 0.18894 4278785574
-0.076739 0.3476 0.18209 4278325530
-0.073576 0.34831 0.1748 4278193173
-0.068101 0.34928 0.15612 4278654247
-0.063654 0.35077 0.15272 4278654247
-0.055684 0.35341 0.14574 4279247672
-0.027247 0.36335 0.1284 4281154138
-0.022858 0.36486 0.12469 4280235859
-0.0089107 0.36985 0.11751 4279056720
0.010662 0.377 0.11041 4278200896
0.025131 0.38223 0.10274 4278216067
0.025515 0.38217 0.094293 4278215553
0.025106 0.38183 0.085817 4282939306
0.025385 0.38172 0.07314 4283476444
0.022751 0.38062 0.064665 4283867352
0.035537 0.40753 0.32744 4281027179
0.037882 0.4074 0.3189 4280507746
-0.051891 0.37114 0.29104 4280234045
-0.057497 0.36844 0.28546 4280425517
-0.065189 0.36449 0.27535 4279245870
-0.068387 0.36279 0.27051 4278720040
-0.08075 0.35707 0.25957 4278983721
-0.087718 0.35353 0.25008 4279048738
-0.09799 0.3491 0.24392 4278853676
-0.093067 0.35066 0.2411 4279445298
-0.093149 0.34991 0.23332 4278917160
-0.089685 0.35057 0.22627 4278458148
-0.081967 0.35228 0.21219 4279178793
-0.081203 0.35197 0.20456 4278917420
-0.088547 0.34852 0.19565 4278918193
-0.0756 0.35273 0.18608 4279312171
-0.07199 0.35337 0.17496 4278391330
-0.065738 0.35555 0.1719 4278521886
-0.062471 0.35571 0.15281 4278982704
-0.033958 0.36575 0.13583 4279714142
-0.02919 0.36741 0.13222 4279647324
-0.014073 0.37275 0.12122 4280431697
-0.0043545 0.37634 0.11777 4280036680
-0.0038381 0.37627 0.10957 4278200125
0.031464 0.41214 0.33542 4279711317
0.03506 0.41195 0.32265 4278855992
-0.050783 0.37579 0.2871 4279053632
-0.060151 0.37156 0.28061 4279970879
-0.075167 0.36422 0.2648 4279049518
-0.091725 0.35677 0.25304 4278851627
-0.089788 0.35677 0.24565 4280234312
-0.082548 0.3589 0.23936 4279313718
-0.086549 0.35659 0.23072 4278589736
-0.094382 0.35279 0.22144 4278587940
-0.084581 0.35634 0.21943 4279312690
-0.07686 0.35643 0.18198 4279115307
-0.068192 0.35933 0.17542 4278654756
-0.065884 0.35975 0.16793 4278719781
-0.070437 0.35752 0.15963 4278785580
-0.065496 0.35923 0.15632 4279114545
-0.060791 0.36066 0.14905 4278982704
-0.050197 0.3646 0.1462 4278787375
-0.043202 0.36714 0.14292 4278787636
-0.029455 0.37214 0.13618 4279382861
-0.02503 0.37336 0.12446 4279190369
-0.0056836 0.38046 0.11353 4279905608
0.02856 0.41668 0.3391 4279122514
0.031008 0.41655 0.33062 4279645265
0.034541 0.41635 0.31786 4279711054
-0.045085 0.38329 0.29267 4279448648
-0.052118 0.37948 0.28255 4279906886
-0.06016 0.37575 0.27645 4280170062
-0.066863 0.37258 0.27075 4279842136
-0.071914 0.37009 0.26551 4279049518
-0.0754 0.36826 0.26068 4278917931
-0.083576 0.36453 0.25483 4278588455
-0.079697 0.3653 0.24779 4279904833
-0.090081 0.36072 0.24162 4278524717
-0.079149 0.36476 0.24001 4279182393
-0.083962 0.36245 0.23509 4279247156
-0.083242 0.36202 0.22742 4279906890
-0.076493 0.36338 0.21306 4279443767
-0.08272 0.36026 0.2042 4278721836
-0.079684 0.36004 0.18538 4278917423
-0.078071 0.36015 0.1779 4278917677
-0.073648 0.36166 0.17464 4278785834
-0.077529 0.35987 0.17028 4278851630
-0.070833 0.36206 0.1634 4278720298
-0.065686 0.36388 0.16013 4278786607
-0.057155 0.36704 0.15721 4278918193
-0.046507 0.37063 0.14652 4278918707
-0.040889 0.37266 0.1431 4278721842
-0.036607 0.37417 0.13951 4278918452
-0.0163 0.38134 0.12098 4279909719
0.028103 0.42107 0.33431 4279120972
0.030509 0.42094 0.32583 4279513928
-0.019383 0.39918 0.30357 4279053632
-0.0035874 0.40521 0.30335 4279512906
-0.041827 0.3889 0.28925 4280697444
-0.045055 0.38709 0.28425 4280564820
-0.055182 0.38245 0.2776 4280172129
-0.061743 0.3793 0.27191 4279248958
-0.068398 0.37612 0.26627 4278457640
-0.073694 0.37351 0.26101 4278391333
-0.06829 0.37531 0.25824 4278457126
-0.078394 0.37036 0.24801 4279049006
-0.080465 0.36912 0.24361 4279115570
-0.075595 0.37035 0.23674 4278656049
-0.080121 0.36813 0.23189 4279772732
-0.079311 0.36775 0.22421 4278193696
-0.07828 0.36749 0.21659 4278258460
-0.075465 0.36798 0.20928 4278524978
-0.077333 0.36518 0.18181 4278918193
-0.07217 0.36674 0.17479 4278918193
-0.064831 0.36897 0.16408 4279050038
-0.06116 0.37021 0.16061 4279048752
-0.040967 0.37746 0.14702 4278852398
-0.02133 0.38474 0.13679 4279117374
-0.011451 0.38852 0.13354 4279709511
0.026181 0.42662 0.34284 4279908437
0.018806 0.42176 0.32708 4279183941
0.014461 0.41937 0.32138 4280103501
0.029969 0.42533 0.32105 4279384405
-0.0417 0.39422 0.2934 4279381053
-0.05394 0.38813 0.28196 4279183681
-0.061988 0.3843 0.27587 4279182394
-0.064086 0.38253 0.26722 4280236893
-0.068101 0.38042 0.26224 4278523435
-0.070461 0.3786 0.25368 4278851373
-0.071394 0.37741 0.24549 4278786860
-0.079395 0.37371 0.23984 4278653988
-0.071776 0.3761 0.2335 4279512130
-0.077172 0.37213 0.21283 4278852405
-0.07695 0.37157 0.20507 4278455839
-0.074519 0.37196 0.19769 4278325283
-0.077719 0.37007 0.18943 4278721073
-0.072376 0.37197 0.18635 4278786607
-0.047273 0.38042 0.16218 4278984245
-0.0034213 0.39622 0.1259 4280105303
0.025701 0.43101 0.33804 4279580501
0.0061788 0.42151 0.3235 4280106845
-0.0058935 0.41581 0.31575 4280501603
-0.0091145 0.41389 0.31049 4279579986
0.029387 0.42972 0.31627 4280500061
-0.045289 0.397 0.28822 4279249734
-0.047298 0.39566 0.28355 4279578698
-0.049299 0.39434 0.27891 4279975520
-0.056427 0.39087 0.27306 4279181879
-0.061328 0.38835 0.26781 4279908698
-0.065075 0.3859 0.25884 4278720044
-0.068981 0.38383 0.25395 4278851630
-0.075764 0.38057 0.24846 4279246649
-0.076339 0.37953 0.24042 4278917684
-0.071337 0.38124 0.23749 4279115063
-0.070362 0.3809 0.22976 4278918452
-0.074152 0.37726 0.20549 4279050038
-0.071961 0.37696 0.19025 4278654248
-0.052346 0.38345 0.16943 4278853429
-0.040314 0.38747 0.15496 4278588201
-0.031514 0.39066 0.14786 4278982704
0.021445 0.43559 0.34587 4284398076
0.014825 0.4315 0.33484 4280368733
0.0098775 0.42877 0.32893 4280631905
-0.0060099 0.42023 0.31125 4280106075
-0.014916 0.41586 0.30452 4279907924
-0.0035015 0.42024 0.30315 4279315526
-0.055459 0.39646 0.27733 4279313210
-0.055434 0.39555 0.26914 4279314749
-0.061532 0.3925 0.26364 4278524463
-0.069656 0.3886 0.25774 4278721067
-0.064863 0.39021 0.2548 4279180846
-0.076027 0.38464 0.24438 4279444028
-0.07205 0.38442 0.22543 4279115831
-0.069167 0.38424 0.2102 4278786613
-0.07317 0.38223 0.2056 4278655796
-0.060895 0.38707 0.20371 4278786091
-0.053493 0.38813 0.17714 4278983986
-0.04939 0.38933 0.16975 4279050038
-0.028452 0.39646 0.14409 4279905608
-0.022659 0.39867 0.14059 4279050808
0.044478 0.42615 0.13795 4278787635
0.010509 0.43662 0.34708 4279577923
0.0058356 0.43333 0.33667 4280171350
0.0045291 0.43157 0.32734 4280370539
-0.0068185 0.42602 0.31974 4279511622
-0.0090649 0.42448 0.31473 4280105822
-0.011204 0.42299 0.30978 4280303456
-0.022158 0.41716 0.29825 4279907924
-0.048127 0.40536 0.28736 4279182399
-0.054666 0.40108 0.27335 4278918193
-0.057858 0.39878 0.26442 4280435816
-0.053096 0.40039 0.26143 4278524203
-0.06436 0.39468 0.25082 4279049518
-0.06063 0.39586 0.2476 4279180856
-0.065643 0.39213 0.23057 4278655280
-0.070055 0.38951 0.2218 4278918198
-0.063929 0.39177 0.21898 4278852405
-0.062005 0.3919 0.21139 4278786358
-0.057059 0.39334 0.20429 4278984506
-0.06018 0.39108 0.19193 4278984506
-0.05186 0.39271 0.16545 4279051581
-0.039227 0.39779 0.16297 4278325283
-0.023226 0.40363 0.14859 4279774794
0.040421 0.42905 0.12464 4280170582
0.015162 0.44388 0.3484 4279052101
-0.001387 0.43588 0.33895 4280302940
0.0026377 0.43705 0.33566 4280960870
-0.004993 0.43306 0.329 4280434526
-0.012777 0.42902 0.32239 4280237147
-0.019142 0.42507 0.31191 4280238692
-0.0091543 0.42892 0.31025 4279908443
-0.010509 0.42777 0.30554 4280631648
-0.02838 0.41937 0.29657 4279248450
-0.041466 0.4131 0.28899 4279248192
-0.047766 0.40983 0.28323 4279182140
-0.057335 0.40514 0.27674 4278786866
-0.062704 0.40232 0.27135 4279049779
-0.057833 0.40398 0.26844 4278721073
-0.063394 0.40109 0.26307 4278589228
-0.06008 0.40166 0.25573 4278589487
-0.068838 0.39699 0.24579 4278851891
-0.066771 0.39708 0.23825 4278325547
-0.064183 0.39667 0.22284 4278852405
-0.06028 0.398 0.21958 4278983992
-0.060413 0.39625 0.19973 4279050814
-0.058283 0.39625 0.18821 4278919228
-0.055007 0.39681 0.17684 4278654247
-0.035693 0.40404 0.16333 4279249219
-0.015464 0.41134 0.14115 4280103502
0.0029515 0.41897 0.13864 4279511105
0.016902 0.42453 0.13141 4279116601
0.031809 0.43051 0.12401 4279247678
0.038587 0.43323 0.12018 4279116606
-0.0012633 0.44169 0.34338 4279776596
-0.0054218 0.43919 0.33768 4279777880
-0.0074397 0.43767 0.33265 4279578960
-0.015052 0.43364 0.32604 4280171097
-0.012167 0.43376 0.3181 4280041313
-0.019243 0.42947 0.30748 4279843673
-0.014338 0.43111 0.30445 4279513938
-0.039836 0.41869 0.28933 4279247933
-0.042444 0.41702 0.28449 4279182140
-0.049543 0.41337 0.27858 4278852659
-0.057675 0.40928 0.27249 4278983986
-0.054973 0.40954 0.26496 4278589228
-0.071115 0.40109 0.24923 4279116092
-0.073811 0.39677 0.21706 4278983737
-0.063013 0.40114 0.21506 4279312702
-0.062262 0.40044 0.20333 4278984512
-0.059689 0.40092 0.19584 4279642442
-0.058634 0.4002 0.18023 4279050554
-0.050664 0.4031 0.17341 4278588454
-0.039513 0.40741 0.16684 4278590003
-0.03549 0.40866 0.1593 4278919482
-0.0037262 0.42126 0.14215 4278982951
0.0043857 0.42436 0.13456 4279247933
0.02558 0.43311 0.12779 4279379003
0.040147 0.43888 0.11594 4279247678
-0.0056018 0.44617 0.35094 4279909980
-0.020213 0.4382 0.33761 4280633189
-0.015347 0.4398 0.33466 4280302940
-0.014515 0.43895 0.32612 4279973718
-0.024146 0.43398 0.31903 4280171870
-0.019804 0.43537 0.31591 4279514454
-0.023388 0.43261 0.30629 4281092711
-0.024796 0.43142 0.30163 4278854976
-0.036346 0.42567 0.29436 4278722361
-0.044346 0.42154 0.28811 4279445312
-0.055543 0.41501 0.27294 4278983986
-0.057451 0.41368 0.26839 4279049009
-0.056352 0.41325 0.2605 4278589233
-0.071607 0.40512 0.24508 4278786098
-0.069067 0.40503 0.23368 4279049270
-0.077368 0.40095 0.2281 4278918199
-0.073754 0.40073 0.20919 4279116098
-0.071164 0.40056 0.19401 4279708747
-0.060907 0.40477 0.19166 4279313990
-0.058467 0.40468 0.17628 4279116606
-0.041005 0.41179 0.1706 4279445312
-0.037224 0.41319 0.16706 4278654247
-0.03 0.41561 0.15583 4278787636
-0.022424 0.41869 0.15258 4279709515
-0.015578 0.42124 0.14512 4279512906
0.040596 0.44408 0.11162 4279511365
-0.010626 0.44901 0.3493 4280633188
-0.025314 0.44156 0.34037 4278523688
-0.012213 0.44697 0.33993 4280238431
-0.019354 0.44242 0.32902 4279381581
-0.022851 0.4396 0.31931 4280432985
-0.03027 0.43561 0.31293 4280039510
-0.032269 0.43412 0.3081 4279973457
-0.035606 0.43203 0.30295 4279248705
-0.042914 0.42761 0.29259 4279379778
-0.050071 0.42382 0.28659 4279576898
-0.056983 0.41966 0.27662 4278654251
-0.062982 0.4155 0.26297 4278721843
-0.060013 0.41593 0.25556 4278721073
-0.064184 0.4136 0.25061 4278390300
-0.067133 0.41059 0.23401 4278390816
-0.072418 0.40782 0.22901 4278918198
-0.065857 0.40891 0.2105 4279577162
-0.064389 0.40888 0.20287 4278986055
-0.06599 0.4066 0.18302 4278985275
-0.050984 0.41242 0.17326 4279379779
-0.045959 0.41438 0.16994 4279643208
-0.035403 0.41829 0.15921 4279049779
-0.027763 0.42143 0.15602 4278984500
-0.022149 0.42346 0.14851 4279445571
-0.0052321 0.4301 0.13369 4279643722
-0.0046281 0.43 0.12551 4279182400
0.032699 0.44579 0.11114 4279183171
-0.020702 0.45011 0.35051 4279643718
-0.018151 0.44998 0.34247 4279776596
-0.023309 0.44692 0.33651 4279908696
-0.019474 0.44745 0.3289 4280435810
-0.028269 0.44274 0.32202 4280104534
-0.033956 0.43891 0.31183 4279117378
-0.038366 0.43629 0.30637 4279314243
-0.050111 0.43029 0.29899 4278853429
-0.041673 0.43364 0.29704 4278919482
-0.052633 0.42804 0.29001 4278853428
-0.05902 0.42457 0.28425 4278655535
-0.062433 0.42248 0.27929 4278786607
-0.052417 0.42658 0.27767 4278195238
-0.061907 0.42173 0.27127 4279114803
-0.060603 0.42136 0.26346 4278853175
-0.071556 0.41543 0.25293 4278852400
-0.064858 0.41761 0.24639 4279510335
-0.063983 0.41675 0.23458 4278720819
-0.071317 0.41301 0.22916 4278720819
-0.079905 0.40835 0.21968 4279115053
-0.086922 0.4048 0.21451 4278655027
-0.076679 0.40872 0.20857 4279050814
-0.06691 0.41279 0.20633 4279182918
-0.065572 0.41272 0.19869 4279446090
-0.074099 0.40856 0.19344 4279511883
-0.063173 0.41256 0.18337 4278919227
-0.026772 0.42586 0.13995 4279115837
-0.02998 0.42423 0.13565 4279510595
-0.0063553 0.43403 0.12124 4280171360
0.0081311 0.44032 0.11807 4279380550
0.036345 0.4523 0.10275 4279314243
-0.015406 0.45708 0.34765 4279249219
-0.027118 0.45087 0.33965 4280302683
-0.016024 0.45546 0.33862 4279378228
-0.01462 0.45484 0.33023 4280106845
-0.018839 0.45223 0.32464 4280105304
-0.028653 0.447 0.31752 4279577931
-0.038993 0.44155 0.31036 4278919999
-0.04414 0.43856 0.30472 4279182140
-0.047688 0.43633 0.29957 4278984245
-0.052482 0.43353 0.29412 4279181110
-0.067192 0.42612 0.28617 4278852659
-0.064385 0.42588 0.27467 4279312696
-0.068318 0.42356 0.26967 4279312696
-0.070382 0.42164 0.26113 4278720050
-0.076498 0.41744 0.2478 4278917424
-0.084682 0.41323 0.24211 4278391330
-0.069561 0.41935 0.23737 4278655026
-0.082148 0.41315 0.23089 4278786352
-0.074903 0.41569 0.22448 4278654766
-0.06925 0.4161 0.20196 4279116610
-0.065289 0.41661 0.18693 4279578190
-0.063996 0.4166 0.17929 4279182404
-0.052437 0.4205 0.16115 4278786605
-0.041112 0.42514 0.1545 4279973717
-0.037417 0.42658 0.1509 4279447373
-0.030562 0.42923 0.14358 4279182912
-0.021093 0.4329 0.13232 4279709001
-0.012432 0.43645 0.12486 4279379009
-0.0042524 0.43996 0.12134 4279116607
0.003528 0.4433 0.11773 4279116607
0.025286 0.45265 0.10642 4279117380
-0.024342 0.45865 0.3492 4278786860
-0.014728 0.46124 0.33892 4280567657
-0.020673 0.45774 0.33276 4280040543
-0.022751 0.45549 0.32344 4279775830
-0.026895 0.4529 0.31794 4279579213
-0.046048 0.4432 0.30833 4279512906
-0.054304 0.4387 0.30188 4279182399
-0.062027 0.43448 0.29566 4279182399
-0.065686 0.4322 0.29058 4279049784
-0.067673 0.43019 0.28191 4279051068
-0.074567 0.42591 0.27211 4279117633
-0.072581 0.42586 0.26456 4278786872
-0.080575 0.42163 0.25871 4279774537
-0.080046 0.42096 0.25092 4278655541
-0.076291 0.42139 0.23988 4278192921
-0.091728 0.41297 0.22507 4278851373
-0.08349 0.41641 0.22278 4278654251
-0.090369 0.41283 0.21762 4278654766
-0.088174 0.41276 0.20648 4278983991
-0.075372 0.41732 0.19314 4279183434
-0.075188 0.41648 0.18156 4280172390
-0.063295 0.42137 0.17543 4278720041
-0.054398 0.42463 0.16481 4279908443
-0.053511 0.42454 0.15705 4278854198
-0.037562 0.43113 0.14686 4279184201
-0.033365 0.43262 0.13927 4279709009
-0.025348 0.43589 0.13193 4280169813
-0.017968 0.43907 0.12847 4280038227
-0.0090656 0.44278 0.12097 4279380036
0.011921 0.45202 0.11405 4279248197
0.0087634 0.45043 0.1097 4279313990
-0.03197 0.46009 0.34672 4280631647
-0.019109 0.46565 0.34633 4279909466
-0.024614 0.4623 0.34025 4280764266
-0.02765 0.46017 0.33497 4280566887
-0.024495 0.4604 0.3272 4279842650
-0.031353 0.45646 0.3209 4279710550
-0.040265 0.45156 0.3141 4279907924
-0.070887 0.43456 0.28914 4279181371
-0.074284 0.43187 0.28016 4279313985
-0.074589 0.43019 0.26803 4278985792
-0.070432 0.43167 0.265 4279380552
-0.077042 0.42757 0.25549 4278787896
-0.083682 0.42352 0.24612 4278522394
-0.077972 0.42577 0.24341 4278917170
-0.082428 0.42159 0.22292 4278720044
-0.088392 0.41695 0.20255 4279182404
-0.087522 0.41668 0.19503 4279577422
-0.074351 0.42218 0.18937 4279841624
-0.072329 0.4225 0.18192 4280041322
-0.062947 0.42599 0.17152 4279972186
-0.057491 0.42773 0.16047 4279974236
-0.051316 0.4301 0.15332 4278850597
-0.041474 0.43442 0.15039 4281026924
-0.034405 0.43724 0.14312 4278194466
-0.033483 0.43725 0.13522 4279775316
-0.029133 0.43887 0.12758 4280368480
-0.020921 0.44248 0.12416 4278984761
-0.014349 0.44534 0.12057 4279185489
0.0088951 0.45544 0.10551 4279052615
0.032888 0.46611 0.093957 4279908182
0.040815 0.46965 0.089968 4279513424
-0.023417 0.46942 0.34931 4280236889
-0.020082 0.46968 0.34154 4280171870
-0.02355 0.46665 0.33175 4279645526
-0.029592 0.46305 0.32564 4279443504
-0.039339 0.45705 0.31428 4279645524
-0.057775 0.44748 0.30494 4279645010
-0.065778 0.44301 0.29861 4279511622
-0.066841 0.44137 0.29013 4278720553
-0.070461 0.43907 0.28512 4279708998
-0.079123 0.43435 0.27887 4280171096
-0.076482 0.43458 0.27151 4279512397
-0.083184 0.42988 0.25798 4278788150
-0.081073 0.42995 0.25056 4278918452
-0.088561 0.42547 0.24109 4278851377
-0.094272 0.42107 0.22445 4278720045
-0.09289 0.42094 0.21703 4278720305
-0.084629 0.42448 0.2147 4278589234
-0.09965 0.41663 0.20439 4278852926
-0.087908 0.42149 0.19874 4279050818
-0.082991 0.42347 0.1957 4279445836
-0.088178 0.4207 0.19105 4279774010
-0.07819 0.42477 0.18488 4279973467
-0.076925 0.42476 0.17736 4279843940
-0.067141 0.42907 0.17482 4280106342
-0.056573 0.43321 0.16445 4279513170
-0.055597 0.43315 0.15672 4279710803
-0.04636 0.437 0.14985 4279907925
-0.035789 0.44171 0.14694 4280368994
-0.036055 0.44115 0.13894 4279973718
-0.032161 0.44257 0.13129 4280104795
-0.025869 0.44532 0.12778 4280631652
-0.020453 0.44749 0.12012 4279514199
-0.016057 0.44938 0.11636 4279842132
-0.006649 0.4536 0.11286 4280038996
0.0027461 0.45769 0.10516 4279447373
-0.021568 0.47554 0.34981 4280299077
-0.031865 0.46904 0.33787 4279907155
-0.020737 0.47388 0.33687 4279644753
-0.033541 0.46688 0.32872 4280039511
-0.04426 0.46031 0.31706 4280106075
-0.054389 0.4541 0.3058 4279710549
-0.06591 0.44727 0.2944 4279314759
-0.073684 0.4429 0.28826 4279576128
-0.071523 0.44287 0.28072 4279513677
-0.079313 0.43853 0.27474 4279314759
-0.076318 0.43896 0.26748 4278854208
